# .PCD v.7 - Point Cloud Data file format
VERSION .7
FIELDS x y z
SIZE 4 4 4
TYPE F F F
COUNT 1 1 1
WIDTH 812
HEIGHT 1
VIEWPOINT 0 0 0 1 0 0 0
POINTS 812
DATA ascii
47.261531834001204 0.36983232233667285 -330.66991720278617 
-297.86513330823175 -0.556956734029938 -162.49991871627486 
-159.66231745025775 -0.8934033175665768 300.4508402479897 
-267.3089991251863 0.7574289957974696 188.77759886545002 
57.007169964362085 0.39878914146764455 -344.62343263980114 
333.7010163615182 -0.22491377416747982 76.12702617971124 
-46.275503673619255 -0.7888911246052994 -300.17332526873247 
-210.11943695159846 0.28262267341301883 240.36200923580924 
317.734261062977 0.3737718234802603 -71.83305609267411 
314.4629297222268 -0.5744773316168876 -107.60063326775018 
-86.06684924393707 0.3045039273903458 250.29857755663676 
-170.62484479759016 -0.4096560700977303 199.1008547629107 
100.91559509458521 0.8776967429536864 295.2669537597931 
-21.406955536504128 0.8858181857255658 -276.19080148981715 
-98.11855266233768 0.6007013322900978 295.6543106613778 
-119.51705096336714 0.3611570620342921 235.11480984747337 
-139.4055289931696 0.5350820172354098 310.01759522307395 
-296.697180563977 0.19223268968713847 146.47100747678797 
-214.28480657993634 -0.7898964324822442 247.87361087671405 
332.3955529114976 0.9632751889944466 -108.84872339267808 
-274.0666836925621 0.35428593810223963 -208.9823011776852 
-304.6447073032814 0.17274341334706733 104.65347796657893 
-135.174333278809 0.03101576480098034 239.04911714560498 
-268.2295158093579 0.9861567352151297 -162.07677992912747 
173.24603601949548 0.980832361393642 291.6806944807722 
-153.74135932660528 -0.8179440831222264 -220.34312347861723 
-207.96372046470952 -0.4215858433965798 -253.20568039627065 
20.083066248560783 -0.1807688756608321 -306.19987443705025 
255.67852465951665 0.10021493731493791 -0.13269647735330653 
266.84690534428324 0.7685294339338111 -198.64860108705363 
202.7810944159265 0.9072996120971022 216.59310391445803 
63.414793219717374 0.3440910814517897 247.322584946827 
146.81860527630283 -0.9628024448804107 202.87284780134587 
-247.94593069159015 0.4755386901871477 -74.98238583107644 
240.08107277407532 0.086209821362216 -125.534930597556 
-120.00691449118136 0.18346216770807988 228.7213684690137 
-312.54535684417175 0.08235427232979653 79.6953178079469 
-308.8128833245448 -0.9637250298943905 98.82194782163823 
331.4823394308261 -0.22436627574307488 -0.17137468823726684 
-125.65946813343177 -0.6501560194919318 235.40523631642088 
14.639996882477334 0.6392337883740813 -335.2863962573589 
342.2039218911694 0.7489574934834902 68.76956292295253 
197.31018826851496 0.8682474551294403 249.6714933350662 
-197.73935179430165 0.5539715345070253 -253.67068066580174 
-294.91751231918505 -0.1506139968032274 149.11035206301494 
196.6934097480476 0.8015300654903768 -266.01137222072634 
-242.22598633245448 0.6558691757407473 -73.15449674627538 
120.83499360090963 -0.5064949592993055 -235.1187450155497 
90.95935279329187 0.44481149417194854 -241.15322476633207 
-63.018949022583776 -0.6923823015183068 -251.26386530086987 
27.51666824912239 -0.6510480117339863 283.8710090125167 
-297.4725905331272 0.4159790982745022 -69.41073878661385 
-219.69724817544213 0.8511836582410384 -167.48694127905583 
273.02285618645743 -0.9810258861874668 -158.22346375159404 
174.74674963618722 0.7994319354323387 -224.2049160305877 
147.91619544979903 -0.5046739361948895 316.53039168375324 
-248.6006043516676 0.6129964475774607 -29.139900013457417 
-322.52657363157346 -0.5008789548063464 -103.55487174933373 
-335.35372130048853 0.7574138952362748 -99.85092966979302 
311.5746286670469 0.16469813549248657 52.55700144613305 
-277.07009482967794 0.7781206297057612 210.0657240660063 
179.1691923261961 -0.26497129704642575 258.22923339375336 
-200.78769109639617 0.8480892917614824 167.30194466411848 
-53.97388126511489 -0.1350984857401374 -246.89880248303461 
56.525177956888314 -0.8899921219735676 -265.1120341209069 
194.43151411520253 -0.9622486526432115 202.75319688051047 
61.54294718930993 -0.9516296319514563 331.27734451031165 
-173.21857225253208 -0.38748644361086604 232.31400094712208 
45.66072396018263 0.2617329357820066 -261.58603333147295 
162.35800934411654 -0.09684753787666711 -298.655207303068 
157.66855246914034 -0.8304975601717688 -264.4858994231652 
-76.48505963590351 0.4828115594528315 -306.7656249138079 
-285.81396193280153 -0.04395658797213553 177.73808263763306 
-195.03028478747333 -0.31307037644842906 -290.2026447399818 
-186.56981521594665 -0.3052066775683777 -191.11775463296652 
-180.80708473438338 0.0708477954978377 -241.47725546656756 
194.5976370036953 -0.15811811188590918 236.1083043738307 
-42.120815793940764 -0.9162131891718777 291.0007400616443 
226.3812777618161 0.9685083198762179 -106.96414618961862 
3.4009615519634933 -0.0036110820378449926 329.41325065238453 
-275.6633505809967 -0.9822623194956239 78.38508815654981 
91.0203940048991 -0.45571269525266955 290.94319831331507 
257.58560749779804 -0.8292066316227753 -26.690844334014898 
190.37279620435598 0.47547867708247793 181.44700474045104 
279.4405719617441 -0.8388746677511458 18.651443993216617 
134.37902271877505 -0.9564298881823061 244.42758537779864 
234.13796818287594 0.8140545654484397 -104.50610797664666 
-2.911859596139376 -0.6908056525317035 -250.09198618029987 
-9.243567527248494 -0.8089643678560461 -254.28097762803137 
-81.07333038337077 -0.43622504684347585 244.29592230301327 
211.7015543652064 0.8072158838444023 -236.39208083429523 
55.16613053755933 0.6226646365065274 264.89691562673573 
183.38731678396925 -0.5126042235393615 -223.99722280334012 
240.58065421724123 0.7072367572767466 193.74552473471445 
-242.8682196589654 0.06931659075075358 -66.30443925214581 
307.59977624647587 -0.055424384462670284 63.16144327371578 
213.71803755588826 -0.1254193541703088 -252.306108850993 
-266.13772132344644 -0.0582845592503245 9.197362289390274 
231.2413053777583 0.3111418278354505 -152.8574471170098 
226.74815009278615 -0.053937481607300386 187.34793052943402 
-325.2438157773242 -0.40744178174047807 -49.586716093799474 
-244.35494864289677 -0.4376130691278546 -153.4160828724295 
206.12364311974096 -0.7481844867538412 -276.50097274469766 
179.5380408724124 -0.15288311718789527 -194.7366479080247 
67.66221990505248 0.42406203476630955 301.0725042708079 
-295.13668136032356 -0.7329064656509525 165.2070434801199 
46.45921048994896 0.9626814625991658 297.0109902002431 
-280.6145746878387 -0.9967874790011853 -82.52101312746314 
-271.54877989360193 0.6189992165996663 -166.0294817794925 
100.52565693097792 0.6261446705633993 273.4261272005567 
133.9007680790805 -0.20065393711553248 240.27542030510594 
79.94449851649843 -0.24110799323420484 315.6864742225191 
-63.27036680875894 0.7803578446650348 271.5281675611473 
-198.30698494810102 -0.471288566374062 287.02917562232176 
-281.6691947395639 -0.028421322421634754 -45.81069306969863 
215.01896581877904 -0.29104938109413525 -242.22734564001178 
-211.82831147118642 -0.4936691322599771 -208.65488633154956 
-234.35953184128093 -0.5154755181492234 171.04049848128918 
208.54293517433433 -0.6476812197231105 -188.67697149979313 
-173.9707292295414 0.8326944634699989 -257.5189463297169 
-80.26792998623509 0.26062680834527674 279.3057826491669 
-242.75514440012896 -0.4631595520947609 243.26249807259865 
-321.68454494493267 -0.14470773866844922 -127.45538492286944 
-339.60529805697394 0.017984901410954768 -51.63692202062531 
-20.104207359782738 -0.21966185315025744 -268.2319879958673 
-200.10839823089398 -0.05848452730883835 -244.92153173200444 
35.83464331437928 0.39245737985324314 -318.2134562576744 
275.81276751479174 -0.6086248511663306 86.3701281299125 
-72.95872142085578 0.44728833783262756 -275.5627177437413 
-147.31016879026822 -0.3646463757645848 -264.2885071252038 
-236.84244956658503 -0.45976807088640936 169.3151896527011 
63.99951721695993 0.3706976868707852 285.4529684676592 
187.94319632350408 0.6529885480245454 197.22656923168054 
231.74752464828234 0.9747149614594752 -147.6796126766035 
34.822022231968745 -0.08846393875683112 -254.03831119901406 
-308.54828308273795 -0.016501387707947623 -125.69394457415528 
-348.36866379907127 0.09338652329422992 33.440720715797504 
-186.4115384849813 0.5517164577974281 -294.8936829035927 
-133.24505050169853 0.26213798438774516 259.3852234972451 
37.98357369561029 -0.8650466115136235 323.18678460018947 
-83.3510278264203 0.8873791172513439 -268.6283594206951 
213.4610895474291 0.8026639544470049 155.65867846505228 
315.2638481482328 0.5122721625347217 110.63287935588913 
173.52800694136567 0.9451069581332256 -181.98860958564302 
149.6286707217488 0.08731648445861806 280.7871584154021 
-52.01577032463793 -0.3165469008635473 245.59508455592044 
-91.46350937369338 0.21518039431503833 -291.9111248507751 
252.6787349096881 -0.6564549180025161 9.797678067606393 
-34.36056845912737 -0.3219057642437748 289.08668998649273 
-21.558922051174438 -0.46480714255791833 259.0783061237822 
231.80871573594166 0.0868285180698074 165.8067445147719 
2.4005990079559267 0.8756155315409277 270.92285772507904 
-47.79836735490821 0.5770825519483465 -301.9915229825157 
-237.80360207935277 -0.6786627089715505 -202.9303579363076 
52.58438962925293 -0.48274585107706036 318.69738538938 
-265.12923062955554 -0.3756017140001149 202.30684029300053 
-162.84143985874218 -0.055912844853043486 218.96006765818885 
21.85918919988266 0.5363381989884224 295.9111146315177 
-165.67532044973757 -0.05580803290194036 -274.35548913568806 
11.824216667959222 0.8716366495548895 300.92543499463153 
138.72570498032886 -0.6775167920380065 -208.80656219130708 
240.90326756926467 -0.11475801224030824 128.16127240746823 
-201.24996964914013 0.25190489778425995 232.82655846374726 
238.93493645242214 -0.9801746066586006 180.8183883590664 
-232.01270525575998 0.3764979357303724 97.8157784144761 
231.48610238607475 -0.12136076734643142 214.93339792774995 
-210.71197778891656 0.9184177061973355 -238.75637265232461 
-267.34763561180824 0.07101579753330434 -118.71110132717122 
-166.72635203453967 -0.5787878251602887 -263.7409366213978 
98.90675538887619 -0.921543915462623 -232.08993941137004 
-109.49481277876086 0.6105802045913267 -265.3333001718554 
-89.23483513926794 -0.7495266752912064 -300.70250490777363 
-179.84411579280263 -0.28395087565750776 -174.87356973799618 
-60.53401601692767 -0.4563711060756168 321.24467597730586 
-344.74926557897487 -0.60066733095134 -43.610094765067394 
265.1678786248624 0.2059484477998088 -202.31007223194658 
-247.48585168985358 -0.11430668519762133 219.6893749316878 
130.58963989762168 0.43014831011750854 -315.66461305223436 
-114.45960856216365 0.8854701675639667 290.85428702297975 
-248.76655510267074 -0.2913486620524224 159.48268518038338 
256.8146129657869 -0.20184987476869343 -22.239257541343306 
229.8403618127132 -0.745445456184959 -110.78388043184616 
-55.12267616348519 -0.079526574562933 251.43522183622815 
-58.62602844296564 -0.032809419013019925 257.3920576786815 
-154.15377142187393 0.2577917967157133 304.6072987822039 
-0.8280703440322272 0.38831623915630975 321.90375497561524 
223.11102579736837 -0.0773020343724864 234.64945711347414 
110.25418672833656 -0.5824141589448877 320.17477967218014 
91.91776476202783 -0.6024056450770667 273.5435076240315 
-205.3904546207302 -0.08080082056568338 -154.42858599162324 
-246.1100755582058 0.026212938883187542 208.96607346740038 
-103.99731466414104 0.5484633999681856 309.61130939028294 
269.69542727411476 -0.30241660421073213 109.98023635808299 
265.5086232508375 0.7729026193267909 168.75732514627288 
192.77527159805476 -0.6665632080561268 -219.0872620990864 
262.1327364320674 0.3705136268412963 19.424853234751133 
242.64107834979086 0.07872240833223154 -223.35839703707254 
129.70976317632233 -0.02532324150174281 259.0804943454142 
-332.62566980974333 -0.7722182640787472 -73.29158583368019 
-82.13925438551813 0.8974468398040893 247.77824312992914 
-136.6625701606584 -0.5954040803605911 238.17338163844474 
148.6844195977709 -0.3802912741743609 216.0040788928455 
244.82003349800672 -0.42903523880495054 162.924131928764 
-107.14570888709358 -0.8711733611958055 -320.6320211127379 
-132.01679979463552 0.08727579962767784 224.86365893717917 
298.65232575275024 0.5777648043814918 -173.31232836837853 
221.4017632361303 -0.9603340681129673 256.15941306296236 
-25.955349173727555 0.6284071944451848 -344.9639743461193 
-131.02963428501067 0.9636727543664134 253.84675843021301 
96.40869729189127 0.2223845443797623 238.0057603151821 
288.50764639580154 -0.37193016820848657 89.47093805082771 
-236.48047635877253 -0.38962680360991153 175.67178810327405 
89.43000572437194 -0.6137218857564666 -322.92291287601927 
-108.98498352838985 0.3154621064278884 -267.5284522996681 
-159.35282062513284 -0.5404829089173193 -235.94276027050583 
-327.93616091145486 -0.7640021272842445 -48.385571676260554 
-191.45051339645642 -0.11309086720180828 -248.4153558074538 
304.93394606710785 -0.7319869883902221 -113.55990206904998 
-184.8957380511254 -0.343180749736836 236.93898030777027 
-265.9063041706335 -0.1691907574841356 45.33445410436527 
-336.7584986243714 0.9279212074680243 6.051280743450562 
149.27214997119214 -0.9887950396037077 -258.0063419691391 
-111.87670132902024 -0.2129282443582674 -272.3442331883978 
24.757336216207534 -0.29170339161692316 -317.2236937235844 
171.36726510244154 0.1128205391075181 -289.72947736813194 
-232.78918547930877 -0.8370654042278867 144.16190872067878 
-211.43604615257397 0.25592005292322195 -272.73074345268924 
-198.19721608617576 0.8690016903631637 212.38997651092305 
251.17945894451614 -0.6256621695856708 22.970628720549676 
-231.39474330727973 -0.43606355813241326 208.8790266798313 
-322.05333450264266 -0.8711928882610147 132.5541705300814 
225.16430989540203 -0.5344853166354218 204.73427576166375 
-188.74948561781545 0.7794495038381839 258.66414779723715 
239.47833144571828 0.8803719904495613 -163.9769877965716 
9.648817316246369 -0.0027941075626845002 -347.94773719149435 
-182.31834804875075 -0.9829012445370264 288.36513808578457 
209.49497611414844 -0.6309697758716837 219.71780078905903 
-278.94894702424494 -0.24953997597364275 -94.48505443295394 
-109.40313465544267 0.9637126718226208 250.58124658295233 
184.15047405896956 0.6561431145345868 193.7316633850307 
159.8800901647525 0.0008670700029100864 -244.1627868318324 
-258.71376889704567 0.038380718534965386 136.90626954928774 
-162.06202201232733 -0.26044630158503335 229.86158962690186 
-210.97408447982943 -0.7848240581957706 166.08343414452904 
67.0412111941459 0.18210312941154938 264.0664238864993 
-311.47884447478555 -0.05368936560566029 -54.274900402158664 
-171.20953270377322 -0.9124435225803798 208.43702589145423 
82.43660199369555 -0.4028585737307546 267.42848477376833 
-269.4528037901334 -0.375395497587371 33.492334015855135 
-78.34757905222872 -0.39445887874048124 310.1161659360229 
127.58089039718247 0.04770279220173146 254.68044334755214 
-271.46843995806387 -0.07610378335093237 -155.99155767259458 
58.24325996215579 -0.06586639422479368 -320.9333999794975 
-263.67293147249325 0.13131255642452722 -126.82355905812183 
-104.25243752469075 0.20693512774995826 246.66463836935026 
-230.65955286519622 -0.005280900420157941 143.5409626016847 
176.52427657363705 0.23276591003981095 -292.57156968634024 
-220.2028316324567 -0.12717324605677893 256.8619618370812 
159.25981232724791 -0.2467696486970148 -233.7889145473122 
25.005185286002416 -0.35050620977030267 -306.72122358393665 
-214.942979773495 0.34097173335102693 174.12631425393508 
-282.2893765243347 -0.5747371660112235 95.24552786761173 
-300.4752523772484 -0.33863442584858827 -121.35974161733337 
-279.60752185988144 -0.3345330192468723 -75.68806944986923 
193.47928846705338 -0.5337166780296267 167.46052942910956 
-246.15870273947834 0.3391263621202867 -165.829184430236 
280.6153397610734 0.6842332277221712 127.01715657521291 
-214.5533054758129 -0.014491054224571087 -154.65543152563367 
-93.02022656221838 -0.8321700979231927 266.32459782929516 
-324.3119258945043 -0.9807421483154786 79.83977713391545 
156.06962579673606 0.8813233242194454 -255.15292012101884 
-270.13331621878086 0.670982267659116 220.23249147093503 
-244.41995143524593 -0.7047043832466604 187.46260494136374 
-275.8779225422128 -0.31701454878290813 0.6670085152796147 
-193.88412676336455 -0.38347925432493235 181.12811900736082 
240.29175577335937 0.5575138816671996 137.3988712425932 
-156.04950309653762 -0.9716348251563787 -302.64431791762036 
-59.94017011122425 0.1937492736078803 -272.4916456720303 
-2.1538695346290417 -0.4285303030945571 -341.2444337948989 
-249.5727726055652 -0.19768578625868805 -66.06797372320982 
-24.44943995342523 0.2724171505183963 281.47202395943197 
-186.48388060992784 0.8323037391911765 -272.17298911883387 
2.7039688316904145 -0.8750187313570137 329.7855315917588 
-310.12242089021515 -0.49452928214202685 -14.08426497482337 
-215.1742611458556 -0.9151354735953834 -142.425908734811 
-183.87162428416073 -0.18233859818638565 -271.3549780324828 
-70.4710561196515 0.3453283216796661 271.64226263936246 
4.986637341449202 0.7593281920103954 -278.7126343091345 
111.5920667520938 0.7709619197169366 -258.79705852760617 
232.37183949367764 -0.14854713079605952 -107.23012960132456 
250.72958145024057 0.5410480491202376 -177.3781261289273 
-286.34591226844276 0.7501900868271472 198.44970393387013 
179.8143385807632 0.03527599910738255 180.84366846804957 
-298.3990976197107 0.5861290556594931 22.044108282389942 
313.19378581398274 0.7655545058557791 -59.30206082386434 
-298.82760801524654 -0.10555658100618137 -50.513348013965306 
-291.67958832695103 -0.3959884506077793 -168.38234588793867 
-30.50584344364517 0.3975734673914908 -251.86648233564995 
-250.62403239912382 -0.43916133631944265 -20.234084221258982 
-161.06308393005668 -0.6730225895458171 220.55029860504135 
-144.96684403061667 -0.18969912819289125 -304.56518022911933 
28.82010987005256 -0.851226363119616 343.7610114582613 
271.5354373446335 -0.5106692601000367 -27.557627679570995 
317.9631867944424 0.7934639160610213 -2.0912724681964017 
231.92671878490944 0.365559995877631 -195.67724846994096 
-309.9413589460159 0.6189089322351742 133.53754163813747 
-298.33649989331775 0.849189471852128 172.95740583403008 
-60.520521348778104 0.5963486396132742 -274.8410972046421 
286.8249625320129 0.044577859446427004 8.194390696634835 
-321.33662172472066 -0.26965547465093254 51.08567677075933 
-266.85869825607773 0.37734393256719057 -148.40884992866052 
81.61657628300357 -0.18016957878346118 268.8330206894547 
-73.70089774748426 0.06474673134082432 315.244179755523 
-82.29341507118089 -0.6193920998981257 -320.2268196479086 
176.6812856638246 0.1432735470944142 254.94072034555197 
294.8937349073234 0.925234406446833 1.5898297030425088 
-186.15318200359144 -0.8735504957677738 -229.79930368736913 
299.63667153312707 0.7413994239709354 -12.362505629355981 
-294.19888197282 -0.236890033623534 -114.70888314123168 
-245.51726385370864 0.29078858369183225 125.20460861815084 
-225.44462364963266 0.28294125679460835 239.95740105420293 
225.21271678398438 0.18510024609570763 -145.14365030980716 
20.99364844626271 0.6126084427348124 346.0898591179956 
252.1459079912627 0.1854354992809073 15.697526133249447 
324.0367093919394 0.7122715937983279 61.18499442071777 
289.0500456086098 -0.6535640752038947 -36.4643165022646 
187.66875745769119 0.6527167682146733 244.36829372299854 
-293.515632866396 0.6508159753204366 29.63837319324396 
-111.64930536752873 0.423172174389298 274.1891220106488 
285.17635794606895 -0.7651212236496734 -121.16507955962763 
-206.19077499627065 -0.026868757700633017 -219.2482863994285 
48.913392662608274 -0.6757371884544281 323.0880846796706 
9.678374863946377 0.27285978211578277 273.68330797292407 
-25.042833671593684 -0.8145310564161299 306.82089915574267 
344.96051653355033 -0.10439327801028675 9.874649162622866 
-190.30060381622437 -0.13241951009902064 254.13859800624203 
85.10233800568429 0.6831539868458738 -295.96973859729343 
152.05522471746818 0.6878506571771867 -281.2633164779536 
324.4004187731765 0.6667460403624574 -60.64831529180707 
-250.51701799056576 0.28852286797187476 123.73998480849664 
280.1286968594075 0.8686878305230488 163.16629338729757 
108.96778570309105 0.8941727608681524 277.1962420016742 
-54.33323922459818 -0.6704545720523714 -297.53868254603094 
-242.22613104943585 0.8462266410095536 161.19329679129558 
-110.9041476523499 -0.5216562051933773 -257.41146249031556 
-230.55080032557996 0.3498204990035074 155.19152431901318 
30.08550498008324 -0.5138375340246555 -303.15561957304413 
263.27912888115463 -0.5950907900939195 -123.96769429878385 
-192.64163746993083 0.38289298097500124 -226.0237161980336 
-31.160512667308634 -0.762837567605714 -311.0853039296276 
292.2867283296465 0.09300369047367218 -48.69313267566946 
89.42473200980345 0.7696450231622596 326.04579897421297 
345.44571856731494 0.03250542505032139 10.72353766447787 
238.8840458830352 -0.21116000322329964 104.63871356878055 
-15.332327620728396 -0.27733929988901473 268.74161354605815 
208.65407337109352 0.055651941406895666 -149.7047203622504 
310.9022587776409 0.5357556649923136 59.80649444396548 
119.66653499629501 -0.650308465814448 -309.6598271604047 
-26.17826462965215 0.43958202279020897 -297.8051493686276 
-190.81013126642046 0.6794537687923206 -205.67354590584992 
-50.990555441182686 0.06643605641902317 271.07714401394975 
338.3672071532232 0.44373437467577026 -81.45026384975186 
-98.14654760136025 0.28874356156313263 -314.9929112446235 
-186.3967049792089 0.02538493576562173 -262.3360398957251 
-295.31871958061515 0.4577852235121824 99.49816198391692 
-261.69350369150544 -0.33202785885477293 120.50428608971738 
-94.12963234298104 -0.944998817154173 -312.9517539954499 
181.1779377628851 0.7110889536300096 -189.50097010532346 
102.39765423488821 -0.7801442793265516 276.66269373568616 
-25.549197156176312 0.7803456855270365 332.344472164864 
-70.13800279586091 -0.4280676124693983 -253.17884857095024 
164.09526591700512 -0.2015778942455726 226.07680116969317 
11.778088872361872 0.6363834440117118 -260.63223417169087 
264.7546166967992 0.6366241475584924 76.45210172070611 
250.85979032128031 0.4718031450932434 43.80503387594294 
183.01667854684146 -0.7153040015791403 -260.11017614940727 
329.61922996144455 0.37992999768208535 -64.56853347497714 
149.84680336360321 -0.13854841962112485 291.55034035055314 
-322.05319558502185 -0.8422857891623696 -80.94248305574835 
-210.94741768977372 0.03267819929596305 149.075928301597 
-244.93148002331617 -0.09773950311046242 -111.89671351192246 
39.665790578073455 -0.2999896291460824 -314.5288576109382 
-273.55990327390623 -0.7491164535619041 -23.657459232310927 
218.8669931921953 0.6258926612889919 -245.87252972607513 
316.6155999047147 0.5563404609694806 137.12565153731956 
-105.6441437197913 -0.906297696445675 -247.78701376729995 
-232.1317077649396 -0.033267652067382913 187.905526089224 
-144.7636523965526 0.8213699936917762 -250.33367679376605 
281.9456873384454 -0.43504767585376536 -196.66523472826535 
220.68234579357446 0.7954954273443493 192.8845250953652 
310.2976896099216 -0.1294222118387991 -66.8380017094041 
32.71216724635887 0.49708896726387186 298.63056510159083 
-12.766993266220556 0.3070888229697393 -277.56861169948115 
342.0826172191819 0.647064100700576 -22.396764305394736 
-114.59956993696913 -0.8557235964138168 -272.3697123409678 
143.18509208983386 -0.8736098738524081 285.0100262320866 
279.39407353418517 0.7388153170167515 -176.26699449371065 
-232.1201641792551 -0.043115141296270476 -101.7614432407034 
-188.32016034728488 -0.09795990554287792 250.66522049446831 
44.48571104353079 -0.9862206897934498 -287.0795202535738 
-252.31644353529563 0.32469001077611614 156.65988746413362 
-142.569677614801 0.8289515195996491 244.27664672317462 
-10.372257449704634 -0.3420884694669861 -290.44450975360894 
-320.75294519671047 -0.8589749885006768 -99.26221624723996 
300.36730535033627 0.11711666451271152 154.55963853046433 
-143.33092465402106 0.3931880071145355 -290.6034798725075 
48.75076291300761 0.031985808378365066 -286.44344543007355 
157.35865864722595 -0.6049171781355382 -250.59439444130996 
195.30057451665192 0.19585119595079847 195.65015409855752 
-314.62787860972014 0.7116322976449705 1.434237230765824 
-283.795452957534 0.889090541572958 158.36214312751184 
345.454119847147 -0.0813014540127821 -39.95201598972126 
-55.76940495969123 0.24938869960215215 261.5532687377243 
-127.39427798505628 -0.009899344620357686 292.08532776505166 
-235.37586876774955 -0.9822116358043398 195.48592254455028 
-282.7253982720998 0.7894254368051614 21.728177968579633 
239.9681943866011 0.4539447113197157 90.71042390967916 
119.08341361177423 -0.22381438272191567 -272.48533864943755 
169.34331745405504 -0.9968590231182621 -250.10636534845875 
2.956992275494628 0.6717420943786183 284.49193344180696 
19.636720622764685 -0.03423645947726617 -266.66873704367674 
158.24029175899645 0.40232463720847766 -199.93524167522622 
-268.0624049576558 -0.9895064952992274 38.244952508043276 
240.18098067733132 0.8445855104221449 82.08402436411666 
293.2793148452105 0.0715363617604785 29.551612556151316 
297.7412953038768 -0.25121822160676177 -76.87452351422793 
245.12698901373886 -0.5837029022444942 -208.04688663071687 
-203.25996203687356 0.6488335377946663 220.94641104663484 
305.64877881530157 0.4062523944330345 80.8996469012435 
-316.7464212597049 0.9533273956954129 23.25835982880281 
208.98264014737555 -0.7846360027920429 -164.42623549347255 
-23.235724853296635 -0.9550001235818255 271.7669462748005 
340.1546307316424 -0.8809940619706262 60.83286221620198 
199.4236651737093 0.10096460989159928 253.35670552733836 
-158.39665378454941 0.9666182766523059 -279.37302661470204 
51.50791698276225 -0.5816861217924012 335.2008308872906 
109.68381850103916 -0.9245477749139861 -269.2129519613274 
-102.95211516462417 0.542841472768322 251.5224285813196 
-102.45063919837177 0.9542943931006005 -229.8581804429654 
-7.629892515238838 -0.19429935924627517 250.78054544586195 
-33.05603372780837 -0.6434404093516943 278.1767149125872 
110.64072362251866 0.5269760953669336 225.30562767143127 
-332.2631132877261 0.22315347107671846 -58.491164987289544 
-310.99738536121123 0.7751565165549057 104.60672923903304 
102.66044614983286 0.07956671546505323 -290.61229812540813 
231.72069303892476 0.2021818526001682 -133.71458811534265 
159.2557359614561 -0.6615466683926503 295.911596929143 
-150.16188913128758 0.753437691209444 -281.2692537061648 
79.45675430270771 -0.17401130183686053 254.89967141878472 
320.78102428499255 -0.9213393216741277 -54.47492683834246 
-191.14219664644483 0.25261881891711346 175.31050794948317 
234.02843389148788 -0.5264415867819328 -90.64274764637558 
-294.13862500213867 0.9553584089116294 -168.57712800973482 
148.49005056206028 -0.6402283770897266 -210.0622642579547 
47.87133700647101 -0.8401386181286681 266.3958680816491 
-200.5992914483852 -0.722041651812461 172.2553250002413 
-298.86120254214916 0.30144842623843604 -82.62139021504163 
-205.6295500974326 0.03331320010159522 -160.47143135971749 
-284.5098147549357 -0.6107786265331883 200.67507257502567 
-275.651548287868 0.20779558082918848 37.64909836698387 
56.603781255549755 -0.22015132205795807 -263.8290730811947 
-271.7137196370001 -0.47999673004535426 -174.26625366344476 
-65.12258787216624 -0.4893599107170845 327.93814498206456 
-142.88309355693593 0.851869340438818 218.7487092024887 
-166.66877628545484 0.35531153154396367 265.2337392944008 
-185.95697855396622 0.5287111497663068 208.5848035779607 
185.49506746563296 -0.27168748574694446 -176.27915140230974 
-198.74492616441918 0.5350280989863956 210.9612489720006 
283.5642077148494 0.9536728982099552 -33.63212720501422 
-235.5590590726447 0.8466920579665691 85.79681661340364 
-19.386968916127852 -0.9575769393396856 -297.4860702543409 
286.82363207255327 0.8320323478984439 -193.81081115493603 
-264.94570379795306 -0.2566112742111677 128.76439394083576 
244.20251573594422 -0.5349081920116772 202.0591961338644 
283.4535953844418 -0.37866519628421735 24.213400948229946 
157.11024055833596 0.6583273456453249 273.6119694034251 
82.45295213316363 0.20995311883070578 289.4402954670137 
289.90518127859633 -0.0653091680085165 -84.5092657859751 
224.4668793856774 0.4074569876789711 245.48480388104997 
195.47052774493886 0.9783236207508805 -285.2201660912605 
167.4753936922236 -0.6913752170760838 -215.73419785289465 
-65.36688909811468 0.06835277669121309 -256.7408659450217 
226.67997988773476 -0.49912644211852175 -235.92972963267232 
-265.31403407142096 -0.8040527102489821 38.81062600979022 
44.92219398452475 0.08276497273133532 -269.01929106319074 
-285.7127036695361 0.07614081259518723 -23.9267954193533 
-88.17641201448923 0.09872910523742107 -283.6674623842607 
-198.08552321233947 -0.8165397366080518 -247.77929484682787 
258.2707284122323 -0.04951164711045175 -178.53367273455373 
-153.934425001247 0.08174757367604157 -279.65235452924304 
-296.3188797125036 0.4119373352912443 -173.8472172356789 
96.2801132930001 0.5426113015270042 -231.20486038688648 
-108.93009741439023 0.015585046762736088 -325.6561013120687 
-158.98212927547127 0.7526902566724283 224.94733687772543 
231.9769595934834 0.1926142657878256 219.3785680363061 
212.32862495381676 -0.22487698277127932 241.0036957180798 
260.5628692965931 0.9491219080011264 -8.47708068846778 
-181.98877134267804 -0.19286965274221624 267.84440694570503 
-217.866871812269 0.7958226158212824 136.27861544284573 
250.57846396766817 0.966255976842683 -73.22175608748218 
307.8328741453186 0.06998765373434224 -156.6328641701401 
-262.62356036796984 0.5720633257597814 203.17340104153197 
4.167209557661162 -0.4223129668292225 255.4852053967197 
-220.31778510374835 0.046598192542125494 256.8614253541467 
-25.27387126761568 0.11422778195817096 260.0374618758016 
-81.91692512872267 -0.5399916269385412 282.271653260873 
19.17812725763216 0.06641316007381315 302.19753540398506 
-14.912778622584439 0.11462109717933777 -287.8755374132552 
181.1372061250259 0.03591468848527368 184.86510148187952 
66.85478403538632 0.216608504204995 243.72389710285864 
-30.030553317198844 0.7958165615507351 310.27450310312037 
-75.26949413815068 -0.3546280635123533 272.5473839361395 
290.32098503122256 0.9841417223682802 46.6656761533817 
268.77739267933146 0.8011941874291517 212.7420625952096 
-1.116718760807503 0.8571262726389783 -298.33341856835904 
200.3324285329679 -0.9859573015986889 -202.62308802525752 
-80.78721627360132 0.8307625949980082 -302.5303540874065 
226.09420658597665 0.8836924124565833 128.51608906467905 
322.487707449708 0.9873812042819954 -61.963618943043464 
-276.235500854763 -0.30771247926672984 -113.08391847877424 
205.19004439814017 -0.03793688534217998 264.76256861580544 
-207.48889612586214 -0.9141610489332486 -155.50008038386147 
-70.2321542300102 0.42910796839740417 -252.55850947129824 
-263.5256553224992 -0.5045075080693096 -19.06446799974729 
306.6720896660925 -0.05738103989908283 100.06526968493463 
-29.9855615250298 -0.4893132768050037 -316.05761479598425 
-231.08404375464784 0.9068218398797256 -172.6191598254494 
251.0266645841532 -0.3433305141256284 -105.84249592782604 
240.4909915751733 -0.1423258894936399 165.85820751480483 
210.58156837108413 -0.3105300671071529 189.11354146703403 
274.9224010332915 -0.7369939166324808 29.396040689277644 
-124.64841219148215 -0.5568128738900213 237.29261688199202 
-58.178552521805344 0.5228550490968347 335.3677203703144 
85.1969246171411 0.6401976290203715 263.55280127233544 
53.28394014584153 0.449788172031782 -338.56750886787603 
132.92704711840537 0.6127802746874058 238.37923510325132 
-301.05218689501623 0.14264638168269994 38.870570373918774 
-304.40891392655743 0.20712945799516214 156.77653039498992 
213.0740800208997 0.2651500782062437 274.509987157441 
309.2527712585296 -0.022404718065496265 -76.36148643147567 
-276.3924958544297 0.3079651915763355 -107.65370714053527 
-22.479668763840188 -0.6967491844869578 -295.6855573528461 
-217.87335941602032 0.7005953118577783 -165.00198935726795 
251.80784891444497 -0.24806681797235197 -14.417395000194874 
-47.77351036367803 -0.040004112203184894 270.9807199005324 
-340.7357219637342 -0.5929299050067369 68.85966444903642 
-343.18300868148475 0.5693446672430211 17.631076943745235 
123.52882355901934 -0.0026622916723864076 257.2070169171572 
279.27428283521994 -0.8097845795368468 117.40915936810653 
-50.35964776395758 0.45375251292460117 -311.811973970651 
-254.0761704553197 -0.10648150011042357 -83.73483923306875 
-308.79843252397495 -0.09447662940227364 153.72896429623097 
-91.22763680806669 -0.5228096934289839 -316.0664256922649 
259.6909091043891 -0.2286387704706525 -202.32522338999004 
-294.0613700018854 0.6466239787783823 117.86950478482113 
52.861950172836735 -0.7753456468961339 -265.6290408592791 
292.63597805034175 0.5457335499569167 175.87007522724664 
305.5648435404682 -0.26381168978035574 -15.090662347245308 
138.06884415630745 0.8293781035328913 -308.05582289283603 
-218.61224664397528 -0.20010092647033262 139.5595390595379 
-230.12132715527986 -0.915858112876845 236.06952115944765 
-264.73825950953676 -0.5969786842981442 52.38791363777889 
-263.4311267713687 -0.885101044903486 152.54502600859527 
-283.7223275163396 -0.12206638563050043 -123.52666714410562 
110.26199234848806 -0.16692287501195402 226.21610221668053 
-66.71211453855406 0.7785274376808919 -250.18848824170541 
244.16211353072637 0.79877295102733 -199.3291210652702 
-129.9427930224771 -0.6645123938042459 -224.84254212285018 
-206.0556679971774 -0.07361073868781798 -180.36131651769773 
-293.1001667492981 0.5676155003999654 23.538505041886236 
186.41398321819528 -0.30810667496720523 198.4244314750571 
318.0024587829432 -0.8221385032582842 -80.80269638298525 
-26.445182274447518 0.12082344321917193 306.7179367335272 
109.71987086227365 -0.21866899344860302 242.30457639341276 
-130.6223938272354 0.6867382492702192 264.41252886767506 
-274.3069523299556 -0.7985330254356735 162.59844579040703 
238.9149365663187 0.2499675330226785 -86.52205025958195 
19.660669821126202 -0.325282709581469 -250.0081235535329 
-151.8673054018785 -0.37463030246505147 205.9653577102391 
88.22185143607751 0.9787797003252554 -276.99715788522565 
189.63553046452614 -0.5606059505640109 -279.3908927332278 
227.66191873187682 0.37978497341113204 223.3463955481137 
-301.69081658450364 0.810285700378079 154.2452423598614 
217.42829830565205 -0.23877977451629206 -223.29404873448374 
-340.90544159226334 -0.19776146556606222 -47.18518314672712 
-168.22651188266306 -0.8408393337572349 228.41605398750943 
73.61791933559459 -0.9721760752417483 261.5581788837942 
-237.0905582593802 0.6505620599467969 186.90108652470923 
-293.2418223870744 0.8458623801225884 71.5299361802561 
15.804983930066317 0.23092867132007577 263.987445032267 
240.92568293714086 0.5484107891093342 -188.77418511041603 
-137.99412297354485 0.7076456113052481 311.87494812309933 
-154.70051549818606 -0.23996845385135934 -288.20745080885564 
227.13168374232376 -0.3816403075941761 -173.94536615295203 
-279.6904568084274 0.10551261408252355 105.87082926960605 
-269.29881186778795 0.1358165031971097 57.596402486597505 
298.2375901106775 -0.12506722349119026 86.2483876462019 
347.4885739252632 0.6648885377427103 -3.9215249602679445 
-249.79597978905093 -0.1566583648387605 33.49502040989571 
-28.1007341516791 0.46051217773547726 318.44193239467046 
-317.73877008806306 -0.39421207493228594 -47.30564550545458 
99.55617048758093 -0.49572072881806917 241.63161414553448 
-28.73642592292491 0.973588691408594 -284.8892632713796 
269.1855407078303 -0.34699490501832453 -214.50778853852097 
256.6102053521424 0.19434962231208686 -54.63416210364838 
-141.82566252973984 0.13259362532874364 -307.23356482473014 
-137.26229375683167 0.9809339351815924 212.67873214508603 
169.18557135566226 -0.17652158624476555 304.1930975692661 
-141.71767711859619 0.411773499067944 -272.5119603777513 
-4.58190942306525 0.20684069655845505 -254.42704370241347 
-26.733254906893574 0.8404947352577445 -347.45056533685704 
-97.75934920186715 0.38703382722139446 309.64268116375206 
255.55784943870182 -0.7939802007052559 236.04491119466923 
252.64357234521282 -0.5379625592696844 -113.85144347072485 
-223.37495732618723 -0.5195115569624995 123.40830305000841 
-141.3605585667471 -0.15821239351193928 317.44590141036105 
-241.1915155171976 -0.6865718067383262 253.39124188510206 
-92.6054070866465 -0.006418810390473206 -276.57159958798195 
-271.9329383825309 0.5211952243638673 160.58223345039846 
218.08767751777 0.7951073998088494 262.3352092413794 
-217.9758910237821 -0.19101442154288217 -230.84562269533563 
-96.29053767837785 0.1341177109586318 290.976915442701 
-229.454763987649 -0.7742617139258938 128.6019464998576 
-269.2291126808651 0.6847567521702482 -122.54722498270972 
229.156653938304 -0.6786705360882179 179.4824847996323 
168.58401791872225 -0.7568043989095963 194.52378221868213 
-333.49701177776325 0.2530685658599039 5.407938314896941 
-76.25327162794726 -0.23357822154357843 323.30892957585814 
72.8131642003677 0.9289675306509775 241.5448338826815 
-212.7020186398331 -0.9753102616068625 223.001571361563 
-292.73084988159894 0.7435788631786084 176.61644887675078 
-270.4823356773012 -0.7913278212308184 204.30206299333994 
-288.9106470244549 -0.9660163748492552 4.734308162736726 
148.26050944012806 -0.43454583634424093 314.005314490656 
299.74154112658897 -0.8310772871544168 -102.69272145812309 
-332.0649303761819 -0.9630102233407924 -26.945347322003627 
-309.7779569082666 0.9690768119895756 146.56972759752054 
-155.9083820032801 -0.2246527907683631 204.4703101866116 
-279.58013448408536 -0.005303368494143257 18.73635953724943 
92.08284231220105 -0.9029294421252918 -255.45218169309354 
-144.3525457484046 -0.9776980204841792 -292.4888437022509 
-204.65480735594238 0.8131019425437807 -163.19684066508998 
-229.48095108798626 0.8866602980520075 99.8606876129796 
-245.88670613231344 -0.2815079225974735 62.94973158719319 
227.9439589273148 0.8416247475820267 -257.126372309411 
-137.3435835011392 0.9451677153528173 217.9248115702013 
83.16116456815635 0.14630985424674292 -317.4516530630443 
304.7378243431554 0.42299374688258573 -144.16243879277815 
262.9888545254997 0.05221425992910711 -108.99781744677098 
37.46887231031393 0.04145104675733635 -335.0092949548647 
-194.54115935644 -0.7667585267940875 -211.05826321400824 
-163.38586983126598 0.5450763115681723 259.4399196196685 
279.2580106948379 0.4868748676946353 -24.13954948669425 
-61.35524789109395 0.4255348145261515 -260.6034751174687 
228.48264074208703 -0.3917811177014645 155.21574315961178 
-293.905985633228 0.24038238995204786 5.247748246069166 
156.80367193343403 -0.05517705704124953 260.39756822808573 
-247.9863886302105 0.9747451223003092 103.4893578430061 
-120.7429397431715 0.8632505874541032 -256.082773579265 
221.85147432059446 -0.04532621107316648 -163.63312433259964 
-226.87619270449207 -0.23367516136478939 182.60398772771336 
316.3013966015571 -0.010981105151751658 -68.02690582177114 
-312.94847631186065 0.6521497208084912 -81.84500536059979 
322.85514059260163 -0.15364889526121828 -28.671735651746697 
-243.80716210464945 0.9768534025855533 -116.40447799707586 
90.80775585087214 0.965713406608866 325.19987496958345 
147.16409679800628 0.6298125054358463 307.55303848681706 
251.61161714769685 0.608777518892496 134.24709021405798 
-256.4912158506616 0.09886504255403672 180.5425931689299 
-270.046841883613 -0.9122597885300348 98.7830296098256 
256.74533868836926 -0.6239823199478123 237.5304842049111 
176.3410940434238 0.9348538941950908 274.5069891410905 
16.127313588957666 0.7146580553588628 325.03095339637264 
130.8927718932327 0.6902121793592413 -244.16780293083596 
-200.95704847639664 -0.3349240361178867 214.95510187615258 
-143.93395708277222 0.4714625622990829 -296.8729267149201 
-216.04925235738253 -0.6252033828053865 135.00664471313135 
148.21146696591472 -0.7453304038803821 274.7469263852011 
-158.50304253469267 -0.37630441612424836 269.9032857890458 
84.60470149222853 -0.9309030045114837 -287.30503471655607 
-191.22469139345773 -0.2928321509843268 -180.96799684512072 
343.44845522178554 -0.44708067062931245 -23.341392987269497 
-89.95017173566718 -0.19214281881977202 -319.80839201917695 
136.37717712591322 -0.8447901156349158 -283.77026189804485 
219.45335051823218 0.9435028477411165 -216.9549686964991 
-159.73873907753767 0.2832128246830272 -244.89085019986575 
287.38541966407564 0.256723405384619 99.19073724312068 
214.65279881593383 -0.4827640423615569 256.7804856490158 
222.52110467378873 -0.4567362483033728 -218.44832896417344 
75.43426528724662 -0.8979033781729151 247.43680604878 
193.48022099489665 -0.8086612031125282 191.213492735187 
-293.6107196815299 0.6699623840727265 9.75143945062804 
172.18522609537695 0.011408028498872236 -301.3770297536226 
179.17199352001722 -0.65410276410152 217.58881764192355 
87.11036626753433 0.19923227076691763 272.85999818283926 
319.31501011875383 0.21645046860369876 42.3410419864904 
-273.3348105228008 0.08804228009026094 -47.4867600632928 
-170.0963642344182 -0.10054064476600688 276.44998291840056 
-179.94384199842975 -0.003636854678950252 191.0413667142718 
12.130032939486656 -0.7229584026181901 -312.2790025001179 
-181.99325665252803 -0.4432536719650926 -198.45622762397 
-244.04891407707464 0.0979302501081718 83.27205127280156 
-294.41704450323635 -0.9925912326664283 44.09390467474131 
11.426904827232866 -0.19262898452321253 -326.9031995345935 
245.67799989947767 -0.9733606873659761 -241.17351127664398 
-172.18450376133558 -0.7899401778775743 186.5564686558679 
283.30671794553376 -0.8134059535422322 202.38637387760215 
91.82019556378191 0.36958701781582226 -279.4888736391461 
-231.29505649559573 0.19537927686084777 -222.56173651499506 
-155.7511620575289 0.9507028136180911 -203.12540091707794 
-321.16922101402247 -0.39380285700597617 0.8992800007967341 
88.1515612107491 0.48966983916805606 298.3036539768194 
118.47248191019419 -0.09031456163626239 -268.1306777694017 
-310.4796951652755 0.1505206259974059 -142.30880040321256 
188.62681431109903 0.6546520496147701 -172.70747499114546 
-26.13939295839688 0.10769428793888092 -310.006879097374 
16.368855997307083 -0.35318212122295334 -255.48848831358805 
30.483548554907806 0.9005797031761409 -274.440179306405 
-270.3994688928718 0.06880613196591678 -73.09143774702684 
171.434513653519 0.1515065419491921 247.05323052613366 
-21.389239712293882 -0.45564115567904073 332.4027946590618 
-311.2872697655251 0.6964185730315748 -92.22034011851541 
-256.8255176537947 -0.7276940788584425 2.6673406233557064 
-284.0520559150968 0.889827488008655 103.7606550126531 
252.09415290869998 -0.5093531389153441 16.37513516073936 
-333.92994111948553 0.9797181619925659 -34.883853331550846 
153.46352509733862 0.7679651851300944 -230.6020388146914 
174.4169034265592 -0.9115215247255284 -232.3671502982189 
-18.08338527049955 0.7634118514559878 338.03149146287905 
176.3811323435159 0.6817111705589987 196.36153615893875 
-160.76707621148174 -0.7126119110549121 -244.56758643201132 
-45.784826312634365 -0.12857311399425164 -258.54703531407216 
-250.58110661100224 0.35265200946115716 196.28980336477971 
-278.1831981688046 -0.1332889226725813 51.94345898048572 
172.46095084360093 0.6649499938280978 -227.05086296654457 
-241.12204669814972 -0.9264737302045656 183.49598735442657 
305.06961823989656 -0.003918402887616912 11.143582765329636 
163.82197710532424 -0.1479622024397218 -192.2814414259028 
223.07121576876355 0.48632036654052935 -118.29798765969203 
50.232408421712165 -0.7032250391136219 -320.8657081430826 
-155.29303472374505 -0.14045764187470366 -309.9964534313378 
167.48097282741233 0.33374858461143475 -301.81595599605794 
241.46794515929662 -0.5068543143830462 -227.63005590620313 
-250.62878393052497 0.6024680501830217 16.919968580657045 
-227.89208390003265 0.667225872884176 251.37136721429104 
-78.8509735258496 -0.36750262405922185 -266.9505066347943 
-75.23813429659745 0.8896751842213237 -275.98550180537336 
-268.1810612176945 -0.48322102594518057 -212.175560182289 
68.76029564287253 -0.3248258045563528 284.135226803784 
283.66447334691924 -0.3946561983761454 -124.8632832515974 
-210.30074052751283 -0.2719250262964479 -278.70544161855463 
-44.865439232353374 -0.729001830372557 -252.04981395089555 
13.872324157990356 0.64132019315122 342.71020896720376 
8.533469681454397 -0.29949215247282446 -311.63872141821986 
253.40012727464583 -0.44009806341242386 22.284874307876308 
224.28800572929822 -0.4910507973791667 155.33102987374434 
-99.34899201257178 0.6220833456215873 236.6294244087999 
234.3720040907632 -0.6348926564352051 -107.5259579805185 
166.59636183925744 -0.4421961935527001 283.5496518916776 
31.532320777277267 0.6186438090635062 251.63648377564004 
-290.5832509032719 0.09938477191689477 179.91758093250778 
11.62631147053326 -0.7790621454828786 -301.4244702812808 
-270.0277050355172 0.6600284595650581 -42.76152514059782 
-80.79243623615478 0.9522978884110007 328.9370708479838 
263.0059606817522 0.8371734753280513 -210.08114389706296 
199.75852280596413 0.10569730195432347 201.24967907334823 
2.719810793969363 -0.17790525872878327 -266.2483374963939 
-176.76129381887242 0.9615961055561624 299.66959703959606 
-315.245534073772 -0.43541799852080065 -116.71239903887823 
301.1741531117252 -0.9046471157367433 -28.80955272222501 
-156.38196666392005 0.21766868911495196 216.17450631964388 
-222.87463247243844 0.3291228159770727 177.4258349429331 
137.26747334205572 -0.2436781032306108 -239.42410367245884 
-6.481406921874288 0.8460764369138558 269.7712379139148 
-113.91926339099075 -0.11440502724978852 255.5240610954025 
201.38167979827858 0.09693652339055348 270.3243442222077 
271.34776817647446 -0.8065090176471772 -31.369407199540063 
-330.1686616115291 0.45605563570173 53.63272329192176 
39.2505378849131 0.9865181843777842 268.07323643345666 
225.79846189534044 0.6202439142165674 -235.70700656627503 
297.3193744259561 0.9900861641489336 131.65068057064602 
-252.03622660695032 0.39492595525839236 225.21475285030016 
103.19322580513222 0.851563564384433 -305.84613471861604 
250.12306859207524 -0.010069508465422095 -56.503022938675926 
235.83173469947053 -0.4396346144271044 -232.0612594752105 
-11.962756015973182 0.5071573993737675 344.326508621634 
39.72252359462106 0.975419794023956 340.26310039748125 
-111.93969431814469 0.9028631496117006 -225.02118634827872 
-135.80265953377986 -0.5854425537759085 235.63813590305318 
86.46227671241414 0.5134679369107185 266.52185941945737 
-141.66328617855604 -0.9897299087322615 284.94390778780945 
219.6842000049779 0.06571622222295304 -180.3638264587253 
268.1468063576148 0.9802442852599764 -64.40818379014482 
-284.6687395453001 0.9477401529978684 148.87780985467418 
-299.99052733026656 0.17012560727018333 -177.86199433001414 
164.6568674435334 -0.030037012424959375 214.13822508556515 
102.68959532713177 -0.6975549143192772 -228.46867855605166 
46.327080813290145 -0.07458281562697189 346.743381350814 
210.55792142938617 0.15283705683012716 158.1921524842205 
173.01120385738417 -0.8760373751048343 -287.1384882985042 
-300.83936426787494 0.9591978086820896 109.03321371239724 
44.83857914505319 -0.8344805881731878 323.17143330679573 
93.50645203760027 -0.9451523232155865 299.31605211788667 
-129.00854803454177 -0.8462528849464288 315.7223536617277 
136.14342867249024 0.8624950834278202 247.17445107001373 
-296.9246987026077 -0.3893947169659986 25.037072324289976 
-226.25751172017016 0.7479014232532291 154.34444403999254 
-309.1050566161948 -0.24494356421756192 66.09941880394123 
-293.19844432357115 0.6433672330261189 130.02474535486584 
248.43723981988282 0.026412291861638515 208.54442220951202 
-60.85093018599084 -0.7911104841274064 -268.15974225552753 
-269.2802277793617 0.7857285144646287 214.81886070783432 
