# .PCD v.7 - Point Cloud Data file format
VERSION .7
FIELDS x y z
SIZE 4 4 4
TYPE F F F
COUNT 1 1 1
WIDTH 807
HEIGHT 1
VIEWPOINT 0 0 0 1 0 0 0
POINTS 807
DATA ascii
-26.19144690450379 0.4416423600232965 -9.884276476581405 
23.029356551715193 0.4574773131592379 -10.632031511268769 
-27.931900427261763 -0.4229433421540699 -3.61744280177603 
-0.989767400252581 -0.10447353216670707 26.7478161954919 
-27.12059396409426 -0.3205030927316901 -3.9866597624029323 
16.998329081338024 -0.0736070468844311 -21.393323632727377 
25.048109274049413 -0.26220492342325785 -8.885366224521135 
24.51436053214163 0.2901305841019647 -13.24547042535974 
-10.383918907488301 0.009577280762333884 23.873165249070002 
23.848828557634913 0.2619720667280623 1.536282150589091 
26.29639378800884 -0.32615775033564853 -5.581482668629001 
-13.247110697924276 -0.35327199089330463 21.513359698703262 
-9.943480094431818 0.4017974217208531 -25.14731799867785 
-20.93223642868362 -0.22260311243501485 17.4994542191816 
15.300678774321954 0.33025467358105054 -21.260183867449033 
9.431561711239144 0.3399547390058384 21.77430454922015 
-24.082813723286147 0.08398966761961657 7.876068582691511 
6.077950372296449 0.25858072704614943 25.589769133079443 
-25.569089848143282 0.38426878831690303 -12.473150093879285 
11.226889850089293 0.2885811097664547 -20.787550987192454 
-21.13405988394072 -0.4085821396150633 -17.962628722358296 
-24.0704500150063 0.4356057280547032 3.1458458903678226 
2.7916105019462876 -0.21908635508977736 -27.78941164240635 
16.392518362641162 -0.2237950765316028 19.148031073950488 
12.357264391828766 -0.26742395351459614 23.839543025533615 
25.127304431771254 0.3933314128414882 -8.329700843959705 
-24.87989955245562 -0.23198988221737293 -0.19300299430282247 
19.10311298212743 0.0030767899405923504 -16.14080607574321 
0.26615450856323775 -0.04059235715300091 25.890603798487742 
20.4152733826888 0.059891394795214103 11.943662596487837 
20.990198299378346 -0.34838762129486234 18.636554445207118 
-3.99138187592642 0.232392556135125 28.339749648718414 
-12.7795511366401 -0.07917999791301333 -22.05882859626883 
7.232039420049591 -0.28448720550721707 -22.766868752490826 
25.018935735574313 -0.18660067113709133 -8.316597380755896 
-16.529712282103365 -0.02147111621473652 16.840705236743624 
-25.333294584064724 -0.13471661796573087 3.622810686814891 
-14.565601287664371 0.19193846466586018 22.87085958590946 
21.843521946882998 -0.3864142530915514 15.569860999492743 
28.63813913758006 0.23173666836211493 1.104723591842459 
10.255450366542812 -0.4040342959977278 21.498946156450124 
27.718222326661568 -0.15224062094301283 0.7204190925435509 
-24.03851601956267 -0.28120177041107075 9.13970627252053 
-4.125961676316156 0.0006714193173197325 -24.591912850226354 
-10.123537166285505 0.1155886153088912 23.30235120438986 
-19.697697609536245 0.3116122620009012 14.981210111875232 
-26.55098214738471 0.3477406398205036 4.026027065199275 
20.738611110047945 0.20352562737938107 -19.18032010910134 
17.686152824157542 0.12698690161656268 19.81204333772361 
-16.73152072366658 -0.41378236304231364 19.355817145128707 
-23.558751258235077 0.19623986464579024 -12.324553351676718 
-23.247274651929196 0.06022254349241751 -6.253299555055418 
-9.184535064737084 -0.4853473761106185 -27.378241540936443 
11.699195548803601 0.20261141884384992 26.050745926744707 
-17.9532999466722 0.29463527202762674 -16.480135488922016 
-21.041184732217115 -0.10033482725512688 12.855969136934773 
13.882748513015937 0.3072924698391284 -21.17030297991866 
-24.185299639759396 0.42003672068257514 11.423940816660926 
0.36678056352173033 -0.09745618612263174 27.37952861036816 
24.63787842175253 -0.41136426908707546 -5.312122025297247 
27.270286528259074 0.2758556881730675 -8.653865814148418 
-15.212499561618609 -0.09521270242081126 22.342907469674916 
-20.27824241493928 0.2161070766807196 16.444763326667204 
-3.861267783071942 0.30134873416083885 27.68150257752997 
-17.343636226621545 0.2748108193109705 19.810449716679948 
-11.52169430655773 -0.47120224452590886 22.699102596688068 
18.295265812140883 -0.37313414023891933 18.913140761083696 
20.62427694145262 -0.16832024430135928 14.819673705651304 
24.51439843876493 0.4707573994187425 15.061355925085827 
-20.98230650196606 0.3698636987803843 15.066708189535987 
-18.28890818752681 -0.01463540275451447 18.643989704854235 
12.72220050089213 0.4379394056484961 20.644251212717904 
-19.81402755320988 -0.15014902034035704 -15.088806538311431 
-20.376755089413397 -0.47592207502099504 19.186769553444666 
-3.624563408215723 -0.3596586232212725 26.062149944331793 
-17.62876087925868 -0.49450398912721927 21.778665686347974 
-23.572715193628813 0.3139955491011369 1.1320193235004097 
4.12037517262442 0.38038276003058447 -27.928009652806733 
22.92197654087101 0.215051147944201 -5.3428625552766125 
-7.196206977019466 -0.11007209772387216 -25.017549717689988 
11.224649083817582 -0.09698182966680768 -20.8763310146624 
-24.41648490090224 -0.2419996782551893 -9.80753876698448 
22.12984207355284 -0.4417767246971306 -14.76165864984968 
6.70444787084642 0.0340429581809748 -23.65167658771953 
-22.54905332733727 -0.377344293897783 -7.669756347728643 
4.245154226721976 -0.2014023801252086 -26.65720576652012 
5.304605115371175 0.035106306882167204 -28.459124681837036 
13.488117075104885 -0.48982195792446626 19.354509958079436 
-20.204573950250218 -0.22533004521635325 16.487937630254482 
-24.369998558806625 0.38694467189142023 13.639107591670923 
27.479229927097112 0.06260481587357003 -9.163349105938057 
11.67866060781653 -0.4921365747974825 24.862804735319454 
0.8142835064324847 0.2371350810451216 25.95744303517767 
-15.49193489050338 -0.159197462805854 22.84173037162533 
-9.925107677530136 -0.03571488094261943 -26.800985667668346 
19.325553477023465 0.40401721391416 15.353803215139372 
7.433507538771492 0.13095589192885926 -22.327249448937916 
-5.695783752074274 -0.4289930355611413 25.684704721889943 
-6.80148913507993 -0.09695465941437176 27.20495744110361 
-22.604696123695184 0.45530379791392983 10.559590965226258 
-8.771267483759097 0.020642830833018988 -24.877608440614118 
-15.958730917598805 0.4442930565391622 -17.447864541633002 
-5.740837047472874 0.3735950168713431 -26.091944620511093 
18.22550330770297 0.11016311621056263 20.329637334609565 
2.728819032370297 0.25512234060015593 -26.055555429253854 
-25.587429584874037 0.14372974923230952 12.946865976309018 
-27.674201170054822 0.026870545777275767 4.464540164504647 
26.610822696409596 0.15828206099324016 1.565201406235161 
17.00265669141479 -0.050513583629946956 20.015984128317225 
11.401425435340597 -0.3373034181065302 22.173878122427084 
-1.7003024427578641 -0.3485474134047125 -27.50390765145154 
-25.54407029207604 0.1725450417299541 -1.9087035899671676 
6.915144322783633 -0.16308106248263543 -27.729478521388927 
12.677982048590675 -0.3340331967718132 -22.00704360867686 
1.3245485209601402 -0.43662823820854113 -26.57372909518215 
-0.08623027383911432 -0.16024290852989198 -27.635193500580613 
-10.949967394393552 0.1991964898759253 -26.112696923572496 
-17.451578624487173 0.3984942179437647 22.789138720081798 
-5.489920127833493 -0.33826033741086703 24.01143623145955 
19.282422528644634 0.2974115191412543 -19.000507522477996 
23.959409062636773 -0.44935321208169043 -4.380461704841396 
27.410065772420456 -0.18407689282559747 -6.501829624517649 
-23.888206457246092 0.1903270722802788 -15.731314747480313 
25.102219041916623 -0.4912263648226056 -8.227749974520881 
-6.095116013976774 -0.3837516301224737 -27.48425806083356 
9.21001404661624 0.258780059242372 -26.861440086286727 
-17.423897225094223 0.34146803662352154 -20.506680852814288 
-23.276881651332534 -0.06776107655822072 16.422364402548038 
-26.259067258010205 -0.23302157724116135 -11.617725766117829 
-24.66965994706422 0.36725220543136317 -13.14045717267502 
-20.04013886425028 -0.34585522109918465 18.371797165853078 
-18.382902312978263 -0.4124502703545584 16.796698178757328 
-25.14296497786812 -0.08269401177970104 8.02061440149076 
16.196276987041383 -0.27243115586067135 -23.114779612433285 
-14.836154715086794 -0.466628508469222 21.681097487232872 
2.2262884931390987 0.4479690567883221 -24.710758403993562 
-24.431837738432694 -0.16619814183975168 0.40838090381638753 
0.28943450142425 -0.10043791322746132 -27.234532902139872 
26.546216572827678 0.21738573909747183 -8.778540191476738 
-25.64983378354637 0.21753304861777123 9.504508860155081 
-19.65075482270601 -0.4460285280740237 -20.77072512511344 
-24.036815697251665 -0.3075760623899365 6.312124543344247 
-12.563235639744976 0.24828326960013503 25.00221798785142 
-4.210134990355406 0.454886675780498 23.949403938588993 
-22.55196247354778 0.3153425273875674 10.917607358966102 
-25.390052261451814 0.4636957993120838 4.162207035078874 
25.931465739460638 -0.48783298027222255 1.3272929414003436 
26.166807841043582 -0.036214481737003035 -5.635410391971251 
3.4492342819203308 -0.09393812828900672 25.073264466323288 
24.08955604259028 0.0383165347005503 -0.1238644727208803 
-13.327787056025786 0.4886986431736242 21.387759273323113 
12.440792327192726 -0.03706022487548 25.049719497836087 
17.034128336599473 -0.47439093961394097 -16.36808040896365 
5.255554953015056 0.43950601497777486 -24.957148195179716 
11.631944169664248 -0.41893990046329577 -21.40224110847487 
14.859762093787115 -0.4960784172962738 19.947820753109433 
-20.30704653283718 -0.15068078518288242 -14.992157091309666 
-25.43149845926133 -0.3838854928778458 5.147754263286866 
-19.909299253505946 -0.3628141933593094 13.853539979563338 
-10.74565287596896 -0.1515367772214401 21.72101366567193 
7.958489687722677 -0.4267088629884297 -24.895077539564994 
-1.4871617033424256 -0.3071360145164522 -25.063334105590073 
1.8981949917761327 0.3402413513097172 -24.228630357112042 
10.915904777728574 0.4819468578884475 23.738024941397807 
-18.725063464805256 0.36504291574773484 -15.918985354995094 
18.246733812467955 0.05337210905713907 19.40962130754051 
-16.98437124356517 0.2726406529989548 -16.632138698589404 
-1.9865980696413148 -0.36635939983247323 27.576417590950953 
-25.456009590827 -0.186787411167317 8.280003133457724 
-25.97596375048486 0.21148871546912718 8.380363712746242 
-18.98409736055863 -0.326021507969637 -14.949108483818492 
-12.250133481518345 -0.1957314213802963 24.65118925364613 
-21.827418152241602 0.06164303166651042 -8.741066438916606 
-17.476398465361665 -0.4979227987926318 22.123205658938307 
16.197670065626532 -0.04500339197956282 -18.05691965431321 
-16.964562203464492 0.2878303932156199 -21.316124968374588 
19.186865562845185 -0.08406188388554214 17.56481731547347 
0.6639118162860436 0.21450538676661568 23.94120719621206 
17.485786679643766 0.33287534418442266 17.406713720724728 
-25.4686712800157 -0.4519597474283171 10.115719905412536 
4.005376114110269 -0.271841622757771 -25.240021380167242 
23.259774028146506 -0.34546318131342335 9.099110013712396 
14.048734533216335 0.4517642658598654 21.455986102005525 
24.592844009271424 -0.14844523577605173 2.2798760681260566 
-7.219433065102273 -0.08874678484190324 -23.328835632522566 
-25.369719123934562 0.3470338171848969 -11.014912025617479 
-14.990524143702762 -0.047715867673555845 -21.26550517794811 
4.4355554439469485 -0.015420659217479593 26.471013237362865 
-16.496982634021368 0.2746258862448123 -23.305925686044787 
15.012652899830233 -0.23082421402095066 19.172571309101198 
24.10990862902695 -0.4190051457784233 4.300381157986397 
15.446998462708 0.1425269654870952 -20.519503791854607 
24.005881449070667 -0.4996935264276351 -3.2439711427525073 
4.0040650081114695 -0.2851929374988351 -24.719799335927462 
27.237622639656024 -0.2910722934875104 -7.930077069117103 
-15.474682749914141 0.47433155095439505 -22.702762019044663 
21.909623998036437 -0.21714493098910093 -13.248700000170485 
24.594849937623724 0.4594941139919694 -3.6907650679645903 
-4.619017457083755 0.3423440774938594 -28.379066731054873 
7.412265512890949 -0.3566654744710527 -27.90009566568867 
-13.18142358152732 0.4069025361464932 19.758644993411906 
-22.350760692744192 -0.3298278383278187 11.7423609327262 
-24.02960583175423 0.4023337454644762 3.2672528273098838 
23.66100096061265 0.08462226098629189 -2.262025181822165 
5.013133386957903 -0.38237197957307956 24.36927116871544 
8.31724425539347 0.12292393135422308 -25.38692592255066 
-8.864615634610516 -0.32109742918717343 -23.88721925845749 
-16.92378817213597 -0.48315735500076595 -20.841274498923617 
-11.54835447122408 0.24775612332316155 -21.443502449348607 
18.586776773677236 0.414044485811467 18.83521801496785 
-23.165005590425956 -0.056324356618647986 10.45728436175879 
3.684525340288356 0.11069701134443477 -28.08732474723342 
25.247465976035727 0.0569061027575446 9.356788225901148 
6.54074319579572 -0.24678742403209275 -24.12679695058065 
11.197080930894693 0.4210233388842525 -22.860937149221368 
-1.1573578583496882 -0.331076262458037 25.57354242189797 
-26.334577734182936 0.01259123783041638 -8.738145841389608 
-26.857728147206124 0.4877887937010541 -8.751273339181862 
24.23737613417591 0.13010286544630978 -15.529878054089414 
26.649790419814334 -0.3173441197070912 -10.621624273924146 
-19.156485097855033 0.338103328973267 -18.401889509934023 
-27.361747178715103 0.2705177871538159 4.24238095670493 
1.4827346575040232 0.018877831005806756 -28.394549530245875 
15.79593500477223 0.010767514588580718 20.81758195523962 
21.306783849511206 -0.10840822118920013 -15.753499647527235 
-20.53058974260336 0.04634404890734212 -20.46702759284129 
-22.91114747685886 -0.031262739572645026 15.706434196670614 
-11.438817084841386 0.09640050291553592 25.11515352649937 
2.218703075882851 -0.21549567766884137 25.31150937571625 
17.216316328899186 -0.2774269516019733 16.902750456858406 
-28.443080432006145 0.10594316384157876 5.384404603882821 
13.456065252868513 0.361359354041785 22.59312802115455 
-27.767197815495603 -0.47846800953373747 -0.21998880811227925 
0.2690640883069155 0.17174945827160037 25.01823472342372 
28.643338971881136 -0.23329007338571517 2.9809323504879885 
14.443342385777505 -0.3251120010070693 -22.25564043657895 
12.680886927918161 0.20518598725022885 -24.781816797264504 
-7.335277942186373 -0.29298266026363073 23.498888804462073 
26.130693760221565 0.14538462511683792 -11.003869180162434 
3.898112090674837 0.3540603310754725 -27.764404464683583 
-28.124733547670342 0.00956189194195034 6.3008746621351035 
-28.28838711551326 0.21124410840849006 0.845591959193792 
15.600333902289995 -0.47254277689569946 -20.061791288796826 
-24.90776280188396 -0.2603043899061772 -6.6975961098231585 
-23.523187812613426 -0.4079198786077305 6.309392811347814 
1.4565023202144465 0.04245888886700089 -25.51879030446943 
8.92264069904196 -0.33673845340714925 -23.858447634047227 
24.455181939674883 -0.13810568396363387 -14.20762462117942 
0.529086490887005 0.4473363978194015 26.603578218305618 
-5.711658174965751 0.46667126275891735 24.829976390535894 
0.6969321794752362 -0.20466082526427376 -26.546344306032438 
9.765104415117953 -0.3552286478218455 22.864557374763233 
-0.3937465000166887 0.48516673802012034 27.589552332248445 
26.014357730166257 0.06854118727779257 8.593789938632677 
-28.48174463376305 0.22546279906571154 2.801476952342193 
-23.703951000596714 0.06331663297041923 -9.726997686155318 
4.343712037464515 0.05112417860638363 -26.915646901373385 
-15.617216821822389 -0.39701292878891303 -20.226951268497835 
20.203476793376023 0.4301055853497805 -16.138642423898343 
-17.944642713726427 0.031421107452863306 -20.33406512365666 
6.051096808839142 0.3017086763058523 25.474849918060837 
9.639221301068599 -0.03410332299173313 -21.455511966885854 
-17.094654885020834 0.06276672914765313 17.028004641190236 
15.381080649457136 -0.42130063609287194 -21.24029237285493 
23.7909124359717 -0.10858222176727894 2.4498911361410034 
-19.955513682110798 0.23342046902636127 -20.11639583898879 
-18.917678234582258 0.15876343875916477 18.261743981600127 
23.51308505731428 -0.21967656355628873 -11.057061340619144 
16.978959290665532 -0.011306844094068902 -21.073833064416572 
13.055507883409433 -0.3872716275334994 -20.23877649224662 
-25.170175724117364 0.08407124836531421 2.6630169180810204 
24.636214344095457 -0.175064696806839 -1.402434004087107 
-10.279085289025833 0.05635297204193013 -24.48142864259505 
-24.46178171679358 -0.224887200771953 6.851718069682075 
-2.4194103249596277 -0.18793131559530163 -25.65035722248827 
-27.607279628348067 0.1996799942205898 6.689480351900705 
22.64121560617331 -0.1449526894508052 -10.381511723011846 
-20.170895286129273 0.4806252805585911 13.509346618927887 
3.8689412760921287 0.07781860174576571 -27.913842180950567 
15.872449912342121 -0.33545808308077674 17.495631552190492 
26.558209615998447 -0.34647361121460374 9.965317413486256 
10.999965662837138 -0.0014362333637411018 21.444263237518346 
-14.904249241757567 0.49497248203931643 -19.69399003198036 
-26.442117113660203 0.037718940958620384 1.5701125501758797 
11.55869186149622 0.03769220990760047 21.701274942039515 
22.84138768313135 -0.21695518052390894 -6.456417286275721 
-1.7409469134225104 -0.024935738633184767 25.998487612661894 
13.169960711720766 -0.43761158886534934 -20.321881239453965 
-24.524936329028094 -0.3752854929450692 4.962101066913777 
22.508050378505374 0.21512714742208194 -12.492561679135022 
-25.65894329618082 0.3046882394030672 4.662115772145498 
10.497410789288763 0.2352233282785373 22.41757032294371 
-26.050132960432652 0.388285903745466 -4.074412792775626 
13.904136545210044 -0.483859025700093 22.01192171597997 
7.724890594641119 0.3084077893576783 27.516825875947287 
-14.620982078801072 0.2080956811693654 19.120414847886085 
22.250885203303355 0.22199876780800876 -8.63703981431563 
16.194979074811823 -0.45279403977442434 -21.534660165290926 
-18.672820228732128 -0.2403987030491982 -18.217517541903124 
26.29459277751757 -0.3613609207204441 4.658224379958346 
-27.455735844766377 -0.4590047046441633 6.732237017220974 
-12.328135641263158 -0.4327442941511426 22.179431808489678 
-13.448087709922213 -0.20601462499767087 -19.58199588395968 
23.09411107127311 0.19414097239265282 7.316018303646736 
-9.222551534875963 -0.17085911159649303 26.16994046968119 
-4.385289961694987 -0.29548916000234926 25.63100505453065 
-1.2824922145226734 0.0193734917944558 24.199173044637078 
-22.100015204279057 0.13174395815334428 10.90549278548144 
-24.111165660772706 -0.4903786073276243 -1.0956325549191255 
-8.779577274851244 0.2897251824431144 -23.495336337677564 
-24.421985068440755 -0.28607157534054306 -13.442859501640504 
0.37128222511509873 -0.10135288250001984 -26.449661380411662 
-4.882636759802833 -0.19828420898892818 -27.55666365419778 
22.35527001023969 -0.24361496878749223 -12.378784876039612 
22.614806216100465 0.206737837052269 -6.650173574780899 
-24.568230639381 0.28929361737505666 3.6232295852573024 
17.490592240625983 0.08577825801758643 17.3888686672996 
14.674340943536116 -0.12767987361808963 22.133226367255123 
12.205213653202762 -0.3594195514389378 -20.67512482057827 
-25.694720345310404 -0.23801886507319114 -9.675561866466476 
-18.42870496259484 -0.00785923970584812 -22.08709980998641 
12.629513306943604 0.3729886907445461 -23.666247665606086 
-4.969669638618229 0.1455752627398802 25.956636608073058 
24.943331301950654 0.03423025177528549 14.340146884278512 
-23.058478284680245 0.3910966995537135 8.068478667099205 
-20.495521610851522 0.36404656938343416 18.37749885216926 
11.90527584580988 -0.2217621562270644 22.042688489312784 
4.884559635997443 0.4788078609259626 -24.194048894519707 
2.569486819646628 0.3323052983751219 23.805332393067182 
-12.15411553550836 -0.397285111661582 -22.64514719332458 
15.33481123366086 -0.06011872722267886 -23.88874438706201 
-2.4834057732276023 0.48143851524703696 25.46808339485031 
-18.677350904830934 0.4180351744913683 -18.3601402699739 
-28.15731224063458 -0.20952233892829908 -6.005416302270026 
-3.3112565694502267 0.39307703712159203 -26.711153794552196 
-12.67773936964381 0.20983107401874945 -24.722823501550067 
13.092886674149472 -0.17320236767004515 -21.912708010700626 
-20.68688067185636 0.22263235760802935 14.9648909519519 
-14.03367432222174 0.3790580576479997 -20.09949267709485 
0.5694735436288287 0.139735312417959 -28.242158952972925 
-9.13668655600066 -0.2155413312048151 27.201518277646734 
-8.058408420440534 0.11706051525663563 24.11383777958489 
-12.34401422287671 -0.3305248396557934 -22.961831664994826 
-2.714612708080861 0.06307082515066675 -26.920749042711034 
-1.9799117154224668 -0.3524495079311315 -27.93992298997012 
-2.5841274926206363 -0.2063368732060975 25.661651127514713 
-24.35242589350418 -0.0273586568405636 -11.165465581893859 
-5.850647674020137 0.3232879763417925 -24.744139346969344 
-22.79298503366935 0.3730567932149752 13.439818201789942 
-25.47772206634008 0.06824125521736413 3.9715850239368202 
25.437967473018954 0.0930234154061984 -10.2177207694517 
24.706433521238285 -0.09171863524921309 -4.379958546102853 
-28.723711268155785 0.35798385055407445 3.675379383451608 
5.811991146951074 -0.4824460198239141 -27.357374614527956 
-16.480907772438453 0.13516936502533516 -17.238373807809833 
17.79358630263019 -0.39415042759511065 18.853520691660766 
-24.272551046631925 0.1686199271592398 -10.833656553561369 
-10.886283003319848 0.22641041413131935 24.415195799044206 
25.7823913847293 0.08743682740917791 -9.80864220193206 
-23.126160640573584 -0.1350396258877551 -10.03456705601096 
-27.70468844649841 0.052590605878625185 -2.362580807483831 
-26.34504140593607 -0.027429535617903178 2.5989680871096463 
15.475731335995983 0.09601787414042251 -21.001549058118584 
19.7559762091485 0.09362048579451854 14.003282818432824 
27.453897725245184 0.056264564334851275 -5.623566864227947 
-17.235878132111157 0.3662199370797804 -19.069534825651584 
-26.02664213243381 -0.06767575545900495 3.7193538673524964 
-20.929325052283666 0.26861167170968225 -16.595543058903704 
23.396987536093455 0.38947770123818237 -12.242870883290434 
25.998810461789418 0.06498554003408652 -6.561579850937598 
-25.89581097751884 0.1733468613146011 -10.701287227686802 
9.580630553755041 -0.49502540915840754 21.76443076513023 
-13.20047376288879 0.3763163438999291 24.734820325888272 
-20.928001941156086 0.04042846360202568 14.006440104267986 
-22.641413997544504 -0.12336326416840537 15.640512962410908 
28.57643988412629 -0.3188988124465173 -1.6295955962709257 
-25.825552647177695 0.35674109802098675 -12.933724503692781 
28.095933580894165 0.3288556741929697 4.097254594133847 
-11.62289273133178 -0.24004113491498025 22.59716156273999 
-2.9712829975334496 -0.1311185133964854 -27.512740199211038 
16.665314065645305 0.20585039766399083 21.06959198151997 
-26.594040194477977 -0.40245688525067713 3.0795210899753838 
8.04882622438585 0.2931261628465961 23.965319110091887 
-6.648089448240623 -0.07847722748823738 27.041323452698414 
16.763991605058095 0.4093798215296013 18.91955733342701 
1.8135801400554383 -0.3561767413467286 -26.81327726109776 
26.512129609795334 -0.0311608142187213 -0.21899209613701495 
-11.059076450301095 -0.17679154802631825 26.16039380438946 
-3.7671770432528815 0.08737340284684736 -24.395116844027793 
-7.391274412528655 0.32671182351954353 -26.111558931467922 
8.041016213939958 0.1201132283888271 26.1332271753351 
9.642320647561622 0.13851067047182963 22.877765996314277 
24.953124045774352 -0.29235218331262536 -3.185594980163797 
20.636852191877608 0.0660550738451573 19.162481174605293 
-23.55405530604316 -0.11706019295715053 -4.661610304174166 
20.610328501814013 0.3301382005264488 12.244774938863433 
-26.569290805916083 0.07183137560645492 2.7939994026029074 
22.70987890336402 -0.3525322202484533 7.773296404032282 
22.900497574596542 0.2384677203287039 11.260563460787214 
18.801353971569736 0.3060271918022641 -14.532393338233213 
-14.659936069944258 -0.45505775536650817 -24.08069214118549 
25.045967181035447 0.04627170633869948 13.519524907452205 
-18.372218355742124 0.20919944059809537 15.753223158313762 
-8.047064015386564 0.11827228010146218 -23.178964948031073 
24.425715571277014 0.3414681713792498 13.02991931364163 
-23.478643773781446 -0.24815649982541543 -14.64523544862326 
12.924510568026905 0.29242743677557714 -25.4745802570151 
26.381791936478514 0.3183275971225161 -8.30693542952078 
-16.64027751705235 -0.43497789602513404 -22.225866334223753 
-17.035767710239504 -0.49890263200233465 -21.35601777698797 
16.785193340562845 0.4696957454638143 -22.959464070397093 
-21.782832728038564 -0.03724689020301508 8.938884573019518 
-21.908676911719414 -0.23757325055345546 11.202870477120095 
15.636229041502991 0.18430393093981845 17.81127318911564 
-14.430247686813132 -0.4563214244738777 25.084493142801307 
13.471369076393826 -0.43339518353192297 -21.912410135255165 
-9.533323244780867 -0.4513947699491453 21.51761401059175 
-27.609429151476384 0.439562335831321 -4.516958772653307 
17.699516966281397 -0.43082205684438746 22.56097293114109 
2.9989671386431045 0.3631078555415318 27.498128883273466 
14.392800165042331 0.3554262578707099 24.88254423723288 
14.812100331573793 -0.05325259181279973 22.932322034882556 
-2.4146793896473056 -0.2470733778737615 -26.778744836107823 
22.83086960622916 0.25500751185503756 -15.65731723681004 
17.81511846142755 0.48457014027899203 -17.62527218239506 
21.707594746543364 -0.4199522975297597 -13.879256248832178 
-25.41244728828029 -0.26693007272597324 -11.652711629236714 
-6.221767002304279 0.35078988702649294 -27.561859773453588 
23.924560397716284 0.4174071926102648 16.171311761686784 
21.68252367055985 -0.28404270344925553 14.036374874363492 
-20.98754037266678 -0.30668616771471935 10.879035629544264 
14.301911743234513 -0.12431553116482863 24.117945240263957 
-8.967564137915081 0.18234540506983898 27.41910655294987 
-1.4162585912862846 0.09808585021800276 25.930390287711877 
19.330905496179597 -0.42984219639796606 -21.36668455274166 
-20.923424687450904 -0.30619038463662807 15.781964809019225 
6.0457210502383285 0.13728373295729546 23.299132444265375 
-14.382239703131411 -0.045908538273822797 -21.19973648035385 
-24.76029564485642 0.10216877835012661 -1.9468096820551033 
-16.138528120966875 0.2736213665027718 -19.104811925487706 
16.149497591857305 0.298209947146709 -19.097872620865584 
15.129439986669714 -0.42194267167001664 -21.929729562201526 
-15.013649252895503 0.09017264005973036 -24.642602795321128 
22.90694196120561 0.16413032366170532 -12.587342771031839 
2.0086974450480484 -0.4906332048238865 -25.309376424460048 
6.806561777625429 -0.37115695892453415 -22.514845199616964 
-16.81154794194745 -0.07404837621868277 -16.996278749292223 
6.637997242680212 -0.3852184644333483 24.17342262713462 
-26.054514083266255 0.07784170508511068 -11.640204321188719 
20.02255957335661 -0.2292690368551611 19.265350231238354 
20.239652043700044 -0.238568133233225 15.77798874105564 
24.855520895555188 -0.39552412117109026 -8.507864500365631 
28.565200322451467 -0.33146494096144696 -4.762273139301118 
10.646202237005943 0.07660803886632517 -26.54316703228281 
-24.703754628679192 -0.14244260964848432 -13.650843344449632 
0.8038850968662092 0.04448756812646726 -24.32364975600157 
-25.63524619975434 0.2690663661746291 3.7757619301718255 
27.745080941435948 -0.2910193707398675 3.6132688731976517 
4.535030421181905 0.1550836662146583 -26.032839582316715 
17.84923954573776 0.4319645229854737 16.103095115664363 
13.551810460199516 -0.3700396814985307 -24.84281314473437 
-28.251597348275492 -0.10154135023209798 -1.5511905416269782 
-26.702533718883885 0.2874809838354444 5.450751969472837 
-23.609951141273527 -0.17009795157864127 10.824794699429258 
-20.089516241210024 -0.30978125547954594 -19.68948383440849 
-24.03236987180414 -0.22148502428047356 -15.90760582854523 
-20.543714279941124 -0.16401557076976658 -18.520122674148777 
12.963317107630877 0.01853256132949377 20.911025407249276 
-19.616321622306387 -0.2356304254393229 17.669034658865346 
27.170974481509262 0.3632786736536745 -1.1791184392916136 
25.087962109807698 -0.41471514202339455 -8.32760385100213 
-23.484231456313566 0.2755571582712939 12.724557896732831 
28.813961550083672 -0.0903567141197027 -2.381053265842182 
22.74518533699836 0.19799821267859552 -6.46981094109766 
21.69287340424695 0.13906295635561605 12.173450477522522 
-10.637438170355766 0.1975324168530891 22.05700349522434 
-1.8587613652587558 0.007938847506500424 24.897582962928578 
20.617730678033126 0.3647959777114964 16.899792774012948 
-24.368735808724484 -0.4911678531645225 -2.54865196359461 
2.781624804693128 0.4895752555812978 -23.691364120050867 
20.963067871388176 -0.3612549512113248 -15.552001123971325 
-7.86104489403531 -0.1969551039206744 24.248442166476895 
-19.577514407208728 0.3126049416771438 -16.779829192433837 
-1.0142354717071254 0.2299532823414363 -25.116633246171897 
-8.833387192851164 0.47909510234953 -24.63036029217169 
-2.64685923234704 -0.21322312636428353 -24.913015882663554 
8.599782233896967 0.4065550867385016 -23.63488495892543 
-17.362860853040242 -0.41801091120471223 -16.94766508887575 
-26.529794902971368 0.434685866358402 7.566352653931597 
26.855947450970508 -0.42857285855281924 -4.343708086925486 
-17.95394858244569 -0.11397551526928851 18.824776979216626 
-19.149663512805727 -0.28495554432015924 16.950538256871102 
-20.538779786199825 -0.46169905442690484 -19.305490705861892 
23.000988139243674 0.09034780759504413 -9.322890092879373 
-22.615594144452277 0.3529177382219252 -9.791394240829522 
-16.557602727105326 0.415030840608424 -18.85656005535231 
2.204189784194592 0.4341584494021339 25.32404521105251 
27.502974663898215 -0.36057773729646037 -5.981163938755106 
25.64436222038342 0.17470950541489827 10.912363588822487 
-15.697712119527601 0.07274970255767976 -18.40416561169555 
-27.445275408053575 0.1475770130203241 -5.383347441635395 
-23.94038633779698 -0.08707435156317278 -12.243678985867854 
-27.98410303295557 -0.4247589193902175 4.138519854407398 
7.981698388233968 -0.34115242385128786 26.2974510461843 
-3.4631908085209977 -0.40041918116706576 -25.89371463541738 
17.645835951847584 -0.14791199905935914 20.19299807434823 
-21.487786320546565 -0.17291365957369076 13.337545382414147 
23.12100885464514 -0.058537084899799474 8.963415446789647 
24.376132284838487 -0.438467816120062 0.649239134139081 
22.4753823933398 0.04724335183710482 -14.482625270143718 
-23.20284638901394 0.3186385717541287 -5.210053989636572 
-14.027788186677872 -0.4021775462605808 21.23780757780227 
26.273336175926115 -0.23562261529348605 -10.18192969253178 
12.804295524581999 0.20002427636942455 -21.342448022088945 
-26.767246409569424 -0.16479917086335938 10.350867170183143 
18.85641248429234 -0.03722607318407678 17.100397015016625 
-22.43375928191493 0.32331590902217233 16.181485627264717 
27.74358785510784 0.2557428499071608 -3.257620326274836 
-14.874660428130897 -0.13303908201568315 -22.86576705278166 
14.976088920890477 0.40075942406807885 -20.47433084671494 
20.787252800900433 0.3389620311039694 -16.442605644515623 
-17.239593572198956 0.4166891011899556 -23.02000092143211 
-26.888154839022913 -0.11132492534747007 -3.7179868340549396 
-12.211048573279342 -0.06766606558136556 24.008104333000325 
-19.052907604336202 0.2586871705474767 -14.558345861589636 
12.42880263399023 -0.1901738645883645 20.46471774341571 
-26.00114928650909 -0.36571396956336544 -10.049447402865983 
28.278306873832097 0.15653895068689128 -0.5888253295509595 
6.24986263444312 0.4704495966409741 -22.872644946508608 
4.505137504645637 -0.2851368149287824 26.911363279822567 
1.562877493365903 0.2783342400704931 28.068197323766537 
-19.035229500851685 -0.3043297679428377 17.442138234330738 
21.969675654060858 -0.4761228918585574 -16.48921919322694 
22.08318906443479 0.005131791969792188 -18.128779975734354 
18.24054380759067 -0.24883884571242354 16.090271490516447 
-23.371571835405177 0.03476857467100458 -3.0845423409901107 
19.83758018474864 0.4863243300188471 -15.737654148691103 
27.827192459127208 -0.10918301217810877 2.0680836331145436 
28.489256093877287 -0.24193956247628945 -4.1508050138939225 
-7.853311411710005 -0.4787869615309349 -23.416196379883623 
5.091590725412992 -0.12146703711689788 -28.014923504050252 
14.528528882148377 0.16724495249317395 -23.3339104059827 
-16.452867025465036 -0.1949334256749209 17.71229408958637 
-18.496514442849612 0.49350464075382183 15.526309789006456 
21.78018499299639 0.24871479943526387 -14.196985190852322 
13.027727384850955 -0.16235788820921893 22.055983395509536 
-26.647603068844226 -0.1315669268696542 -8.497628471341688 
2.0309943881434953 0.41586096637499015 -26.601395118004877 
4.27278381639504 -0.09438735409327381 24.936570310614126 
19.47113782435318 0.11778371284065947 14.697159400251667 
-17.50250595112659 -0.18321351517865758 -20.122090303712532 
-24.79906069135824 0.14448763581762225 12.082200344265118 
-9.21371652147798 0.2647321568493647 -27.19355714480033 
20.65760379981177 -0.25098991960331585 -15.468766770244754 
22.094338114265856 0.2486171736290138 11.646148655803628 
20.085701922511678 -0.13878105238571792 -12.473285196072538 
-26.88531630898886 0.2526201562175673 7.447842618633933 
1.132791122242523 -0.4940782048722172 24.07957751029183 
4.470643497153574 -0.2874308723124924 -25.51680686813528 
15.433944140372002 0.16006156292559914 -20.29805982557344 
-12.180273242512804 -0.0708116480537212 23.140817220227444 
23.32521686234998 -0.3284090194674062 3.5290479107433876 
-14.533045706863055 0.01263004530604539 -22.49646388733048 
-5.9631532540849745 -0.19767711655942388 27.7457037289913 
9.465954878291832 -0.012245268363636264 -22.63470207098086 
-17.21749227411162 0.10690764230295702 21.500344622448367 
-19.78471454127082 0.2951971929924825 19.32394414184131 
-23.699997409130976 -0.21232300241000557 -5.671748896736691 
-3.232765143833558 -0.4168716450087112 25.22029991066373 
23.68921947824043 -0.0004278659086477399 -15.50231187335521 
0.3846524855040593 0.49157186553393784 25.364761662661355 
1.469171264264761 -0.05093929936285302 -28.45647064755198 
20.012971977036578 -0.05624212615814839 -15.136977644709644 
23.186481292096865 -0.19576842956941543 -16.433676332956775 
-22.411908774652236 -0.48280532781599195 10.531868831471748 
16.229652639746156 -0.011625555700513712 18.802255865421337 
-25.53532068582921 0.10462685073936917 4.976287175810674 
4.799608293401411 0.4830284936370143 23.50657762485539 
-5.719717769846555 0.006942246720925804 25.77572087618298 
25.359575150334706 0.3719040363766629 -12.432775349013394 
-10.68659976560022 0.008635382892513421 22.296756282546475 
-13.119536673859045 0.07480005354188646 -21.142539980148445 
10.204224245862811 0.09952128635973112 -23.334087605609437 
-28.960646985665534 -0.36947715067085773 -0.08140442811571227 
9.597853705071774 0.04458373582102715 -23.670224288600238 
21.22821549761969 -0.2545081872721059 -10.906057666501075 
-14.764035944124421 0.49355501157376114 24.48852226960269 
-0.5551147558246632 0.32384139906992293 -24.767939241693657 
-23.59562275088653 0.11860133647646887 3.119457280437673 
6.337510383957913 0.24009715029270284 -27.661667869850614 
12.474859405687084 0.29083381950347 22.93033690012866 
-23.304164150181872 0.19704018820554703 10.56484930417311 
-21.657591358310327 -0.00048822637525702817 -12.805356743042385 
4.2942580496120755 0.265247744049146 26.926240421257205 
22.867125251588988 -0.3973100073219916 14.984850032213409 
-20.58913006699401 -0.3202830259615259 -11.668676829253968 
-24.438149266105064 -0.021134977752706674 9.853086464166433 
-6.749857980301273 0.28675959700084575 -25.73008027208804 
24.119358190270876 0.11843426013233316 0.0726193194366681 
-12.215711781007744 0.4352315266045578 -20.605004947625236 
27.327707285968675 0.49947052899083166 -4.594355065301603 
9.839923964921791 -0.03063405396496044 23.646164132484575 
17.635626707281364 -0.4372903318030449 -18.97962442848561 
14.776954725818202 -0.15588575001610372 -19.54673704747957 
-3.7408962529149314 0.09526580250431871 -24.484384943261805 
19.41758389356562 0.395200379465227 -15.501954927117218 
9.668374962979174 -0.10132001929765078 -22.22908923711992 
-17.41828617115661 0.16579577296025216 23.100266882929084 
-21.134691281069607 -0.3370102680618806 -18.674547159193345 
12.161867064200216 0.17989365198799145 -25.914861377934947 
-27.480332979010797 -0.21203030665707356 8.638066560700814 
25.031046154584732 0.0077283902910959545 0.305872533501201 
27.334387632867504 -0.2557346832080908 1.2467822488527063 
-20.338980174742336 0.030321122220027585 13.235370712652243 
-7.9479451769697995 -0.1976766695408283 -25.450760620366427 
-11.238801733469893 0.323637211759105 23.143004316408796 
6.865363367848483 -0.3317301669104372 -22.971416729476434 
-15.566908557015278 -0.45009429666315903 22.123119205954026 
18.56100448766559 -0.14928890093661962 -19.020689790783255 
23.74502816951734 -0.4130566607608094 16.16640131968818 
-22.079111591159272 -0.37529369644115906 14.349146769306003 
-22.566277551179418 0.3583490949175475 7.012280445644155 
-23.205096074341935 0.35425299796934495 -11.19756445315576 
-8.110276758001907 0.14951616940771384 22.751622113131905 
27.054961479007986 0.4480182914031484 0.09496406552640779 
22.156144269303958 0.08468479179066135 -18.27203939288023 
-9.784747756187755 0.23503783258408284 22.68410836390264 
19.253678389965895 -0.4332227976381965 18.69828208232092 
-23.86082645108017 0.3919665123240009 10.438938235885 
-24.71588514235745 -0.28750680987872446 -12.165170195774325 
-10.393317436877329 0.08201527423128785 -23.21736669601019 
-16.34977743718323 -0.05499366101974612 -21.53784353462032 
-8.854355416005761 -0.12381587686880013 25.353694417645304 
21.358561721623747 -0.3722424255298281 18.34261906113078 
13.146181947520365 -0.4961173362947683 -24.607863189255248 
25.02291160065085 -0.17923219745557684 -13.059906788124207 
-28.639949670773184 -0.045333024169962544 -2.954420304960564 
-23.497393278645227 -0.3101521226842727 -8.32133225482816 
24.69726151091404 0.06496849769251967 0.7262558066171322 
-23.3224494933141 -0.42270898969417803 -4.808526670817815 
-12.823375513155716 0.14806355352087808 22.758329262760427 
22.663882730234686 0.3741411615521453 -16.189413113817793 
-19.91015762231762 0.09195464473858028 -19.546349006860126 
12.314405316813554 0.2775757498137974 24.000966023337575 
-28.371430390428035 -0.10359483298574534 2.176350851007381 
25.562463909845544 0.4694474209992724 8.286994908469259 
19.1288332775834 0.24917723089740185 20.726773492614615 
-6.455537303314867 0.05576103270751387 23.804990318545727 
23.376224309383026 0.1749257355402376 -4.738266410341835 
24.23985989560141 0.4829402566360941 1.9452682513651136 
10.40438533307293 -0.32998298272841164 22.922032223032247 
-24.885173324176016 -0.06121876517906821 -1.4403698153750544 
-10.46493949056928 -0.42010873051398834 -22.383840546721306 
-11.772914214263762 -0.09667143917797183 -24.18352503364631 
-3.7869673174964746 0.3887943442338765 -24.91983408562728 
-2.680674837954805 -0.4163823711295441 -23.624208670102927 
22.760275441183424 -0.012113127986899896 -15.352933393612698 
-4.943335044149475 -0.3463050660226107 -26.9145694363801 
28.043771041028226 -0.31686008879117156 -5.325440929633843 
-16.0232489426954 -0.09887074831767151 -20.298379040416318 
23.758624060840415 -0.3012345545166367 -7.604558507365585 
15.757964527605596 0.08902182024642735 -18.585561036398115 
-25.63398482956393 -0.017787419438847096 12.378145849327142 
5.0634872159479745 -0.40015636979233016 -27.90588593384271 
-23.29344808159688 0.4815688985973161 13.764222599272088 
21.425199380885513 -0.16620336289792093 -13.286884187929228 
-5.138882362995703 0.15305852502272488 25.594762247122937 
-25.313373099511583 -0.3503444362457401 3.054023443317278 
25.975384964275904 0.14337326905635206 -3.5889214658832866 
6.7424256571133405 -0.28505114333295944 25.75681505958704 
-4.856217971150288 0.34437675907441234 -25.365226135644267 
-13.947909819772399 -0.34478228992008275 20.667485733146798 
-23.153809853238297 0.4689932860716415 6.344861663159791 
-25.73293855883016 -0.19972143120019892 10.365007987984605 
23.765491050025066 0.176758165360145 15.287709903102817 
22.30522691753927 0.10444837857552014 -8.095669449972512 
5.204256353852458 -0.3037683455662412 28.342183464093463 
-25.92278495978279 -0.35732314514526975 9.96284732577568 
-26.4114596471796 -0.1543811937654065 -4.7645880177422955 
1.6072469966936447 0.2977857380119575 -26.626929771415103 
8.168292270994778 0.14661002434320913 24.981814084066063 
-20.668919463027787 0.4291475923964132 16.03899512988108 
26.793349827516266 -0.3283796306052239 10.491514115381396 
22.51541459760001 0.148153342256914 11.921117798912187 
18.40038863211849 0.06373622387801603 16.82441230617831 
21.668674795362655 -0.029716127436240636 11.333611766097114 
8.670031243755426 0.12338583120554525 -24.45043718598325 
-21.205115358202466 0.35144969192620146 -14.651774467242628 
-20.180128639357253 0.0762036253088938 -15.92345056444452 
3.226299292566074 -0.07261987782249135 -24.996703444589567 
11.878288911071808 -0.19542806870244844 -25.567866505601074 
28.344231384295544 -0.04496057605172732 -3.1495268206198426 
1.9204186107175263 -0.4588199351685971 -28.16782066569308 
-0.7169075626602928 0.04511064916049823 -27.15470702937756 
22.77350862791574 -0.21232396344985527 8.01731735450617 
-10.29240249536669 -0.28082157828440113 21.613164465394835 
-17.460365448137562 -0.3076180843159668 19.954101764985612 
27.11458185924937 0.11547066182180377 -9.769759862471986 
-14.35138339042334 0.058873730755884424 20.998741211361278 
-4.6153051464788 0.0493437477789489 -24.521731181496648 
23.01454139218731 0.11252859486532363 7.629159520371994 
18.65406562582497 0.3934134473406511 -22.076269898286096 
28.00153566142634 0.14615272462497642 0.9197938445670647 
20.98673115372643 -0.10309226506163272 -17.034042611207994 
-15.179341915882656 -0.14419880831231047 -22.8862925169113 
-7.031785671669914 -0.0973843150345588 25.538992123958632 
23.252152326651927 0.4883753137126441 -9.29710398767127 
-8.498639085513137 -0.31764153218876245 23.141264385228812 
27.471421506805477 0.4516238864095766 -7.216708658007707 
5.364635766805567 -0.21525132275081205 -22.89081162429107 
20.244178335755652 -0.006628574636247442 20.051394886431577 
23.716890393510212 -0.3263668243448268 8.175701781999432 
-21.84841723900838 0.14237849776464995 11.152005535889606 
11.918808344298357 0.13335519487394631 -24.54566910793146 
-25.80555057184538 -0.08303489865471037 2.273867334355358 
-6.829488119166419 0.4469113044348374 -24.213097224553117 
23.252692659198523 -0.059374780517377324 -3.670771986611326 
19.842400024659437 -0.1647674116847906 -14.302646121434151 
-17.466928010068376 -0.2036835711817787 20.034410802862364 
3.0254326525843602 0.1464752727097296 -27.07134289460036 
13.710872126695063 -0.24505253511437952 25.21505652699522 
21.782982620764166 0.15562446010497089 -9.926625958872439 
-25.859804863529497 0.09895177469867733 5.10516369614472 
-7.644664239798943 0.4971912388375087 24.367186904296037 
10.495138724286761 0.44097715897328016 24.318674578584545 
3.4749728353236566 0.16265115246273898 -23.692000838562965 
-26.834374155082564 0.2948682516637675 2.2614366053885235 
14.439883851487119 0.14675055087806976 19.62088114075548 
-16.659452907456735 -0.1196714462589511 -18.141485198732923 
-26.708137893783796 0.04612850864391915 -4.941027730972137 
-22.058928729624885 -0.18749308682434274 16.459693829773595 
5.819279043528481 -0.41834833557616347 23.353689899976263 
8.174852135120224 0.3076641183437304 26.644722544938105 
-13.48944989887503 -0.4430367996606306 -21.28980416893123 
-27.801470977531178 0.22928082915270787 2.7934196024346516 
3.346826369314668 -0.27511593406415813 -25.98673954361967 
-5.477600496276226 0.24415589971973795 24.307261158563044 
-25.960152291768015 0.23107128942801636 7.406180869813619 
2.920489329303627 0.4761989251660088 28.58578174300436 
6.422869276078928 -0.19240514403164932 -27.647042881331824 
-26.538557486435707 -0.1359266579509797 7.746975227955367 
-21.566736273022393 -0.26898463886012325 10.07652735654959 
12.228061140622472 -0.42648854905965994 21.196612234702783 
27.217351009072775 -0.18730557144584103 -1.3470131288420966 
-28.30433728833928 -0.18880986950007062 4.4720192592138215 
-8.291559947590782 -0.47569650853139234 -24.079216587401515 
-22.78415443291185 0.18259711072419538 9.74584654761743 
-12.132921260094461 -0.40586202742783695 -23.18733695594466 
25.29187893035487 0.09557425097429284 -4.66679146821975 
19.70114347328099 0.35283763653363964 14.53640792158899 
12.371660454064976 0.10981645175145616 23.6305001444629 
-23.638260771481775 -0.4756088184117685 2.846198644972753 
25.173637914994064 0.14950084901807592 -14.096060538355811 
18.249761335721875 0.40963932170803186 22.478335988093352 
-13.438429389615155 0.21279855900647648 23.292415850546945 
10.830233902871475 -0.3878176553598851 -26.41580305065061 
3.058156111030836 0.18440001349523916 24.96355089870034 
9.144383653404475 -0.043134778975763566 -23.005749254801888 
21.42858136409139 0.13135147355368804 12.956814835825247 
-10.626099145887531 -0.12191086557149966 -23.41915652490952 
-14.46477190900431 -0.007463285480884929 22.106678361762505 
2.7441409698891586 -0.4632092534679435 -28.14045412452518 
-26.51995392342638 -0.13003289227072812 3.760123106649524 
-1.591683147922401 -0.006189743730099173 25.49928566943957 
21.802718769383326 0.08436830358769798 -15.164381349981674 
-27.803417867597027 0.1603169513941738 7.593776332479625 
-3.928009602846221 -0.2626238349768323 -28.004711224973278 
24.072395223431027 -0.3506015716667352 -2.6920423489928944 
-24.149017501279673 0.3834848036094407 2.961402038452304 
-18.222047508292444 -0.3820883446479979 -21.763926437943283 
-24.255600902576823 -0.2690861867583102 8.04430367003156 
-25.356426246981744 -0.1337066026344399 9.611636023295928 
-8.146722282409547 -0.2904124516987686 26.990542448024964 
8.65912687025611 -0.28078803770980565 27.210971868753905 
-6.979989309047271 0.1392553745598788 -26.319476006933684 
-22.441578488368748 -0.09352674936927452 15.940805680762944 
6.618798367172713 0.455346362923588 -25.010927783714752 
10.371235624523319 -0.28528136713653207 23.89917410531708 
-24.2016776750626 -0.42924087337157046 -4.23034235126031 
12.613471616886214 0.4125509860858997 22.22632159856729 
-14.988056107209712 -0.17289628708879978 -22.028299972745646 
24.951561088794417 -0.1524149085008587 3.69008066685526 
21.54861665693843 0.39792926965023856 -17.40488783478234 
-22.331868374505436 -0.3266928380667531 16.370682177440724 
-11.304532357641184 0.28815701945329586 -21.244116125771793 
-26.003595535658608 -0.2568293752821318 -12.049236645545847 
24.668021364452837 0.07368545679847394 -4.798492004211404 
19.274545681816175 0.17847324512954577 15.714018222712362 
22.865926742234688 0.08037252061736277 7.41432716915526 
-25.161861246314725 0.4887227199494262 -4.239175235028318 
-24.824707914718203 0.1736089475427376 6.420448824960725 
-24.267499331517364 0.3456513045426868 4.802091621177296 
-24.719530086499557 0.39228424694986863 14.46192056890939 
7.644219414108433 0.22397402475502393 24.44707021322128 
-13.879875698307698 0.23475827556461326 23.726397593433273 
22.4749007213632 0.20254620221502728 -8.329668501466662 
-11.844156990862233 -0.17548007840517554 -20.34457136463545 
-17.48133812191383 -0.16745507567537066 -16.071119062960438 
-11.117798818418764 0.4154688256951201 -22.01002892420256 
15.480696529532816 -0.1696334324728238 -21.79256793906928 
-6.986612417306612 -0.22941433487389706 25.469626095128323 
25.662837768875846 -0.28698823586944644 0.2591021674702567 
-12.801883422611157 0.21116325102525202 -22.844523574760952 
11.236370780396262 0.11961485923746573 -21.479968722579766 
-13.619733863203622 -0.11162390637406361 -25.025667532368626 
3.7444549706546213 0.41863551236580143 -25.577468863243233 
-8.294508058737948 -0.28484086132690223 26.23074862663911 
