# .PCD v.7 - Point Cloud Data file format
VERSION .7
FIELDS x y z
SIZE 4 4 4
TYPE F F F
COUNT 1 1 1
WIDTH 814
HEIGHT 1
VIEWPOINT 0 0 0 1 0 0 0
POINTS 814
DATA ascii
18.265618858088466 0.019322997574306777 8.437619579459055 
-18.4740925461564 0.43510109531795227 4.966714698632065 
-10.834610327313081 0.27371151322953474 -19.561736281547297 
-6.302376897465068 0.45326474293652863 -21.622751951198076 
-18.314142785594612 0.014239330388530369 7.995093843344988 
21.765619193993825 0.10667621575677338 -1.9646180170124388 
16.962068983333975 0.334493099293128 -14.809897008930186 
-16.53651688047269 0.4318161087010946 -10.14285710531465 
-16.663884189751965 0.3791688484293895 8.069428590159738 
4.687611427052866 0.08559352945392057 -22.35114380149243 
19.812875294422753 0.2451147284979862 4.703251961625552 
-0.20692178395249242 0.4342867340341962 18.26516028174962 
-14.357104020498054 0.48854588753633194 13.187399673942407 
17.95743021959618 0.0367894301495747 2.158739996218802 
-6.758515142396702 0.295620966622944 16.928723479609133 
4.359139057974364 0.017822086096980938 -18.089757250133612 
-3.26536459033897 0.08994164683641626 17.462957901737294 
21.653550123251414 0.023423026847230244 0.5396949994464919 
-16.719012307107786 0.006149853731653332 12.118861053781433 
-13.690328937197458 0.36576465500297073 15.692588696592058 
-16.823094770178933 0.37196366403901754 -9.232975972030157 
-18.432714104565164 0.023288281382566278 4.235901210165226 
10.862071819068008 0.4705699783368633 19.625367542695 
-16.442759442502627 0.22079405559760534 14.765079909873133 
-7.2275830813900095 0.45122345471324826 -18.138372295504865 
13.70045545272003 0.09590169152418287 14.657680015006688 
-17.480719223629038 0.3631451635619373 -6.902325350877503 
-9.182156385872467 0.008599820752243748 16.189091197845038 
20.396233112568748 0.24995473610762536 8.952655506390231 
15.362095138487817 0.44598231832210955 -9.54117946617103 
7.966422010064071 0.22137582695983093 19.251088029024682 
5.673363081282478 0.022774589764433195 17.942011761751058 
19.033573626264612 0.11926404095357146 -1.0735399779409085 
22.94946368286724 0.0553495647165404 -0.8514338306794105 
19.841972210436317 0.4761962208469674 5.901947742840083 
-18.919881141113787 0.48695233643720603 1.4029886955809165 
5.004022943502945 0.1773692876790186 -17.81197867425006 
14.794931076797702 0.4007491217282663 16.57816635921896 
-5.098113315406652 0.2366268655213184 18.299646358012666 
18.950255142380726 0.1979288503476878 3.9101767617550776 
10.277987189878198 0.188206551741181 16.012356833526564 
14.02410252274916 0.4137420731982402 -11.99667330740639 
-14.069722220898523 0.461126571491622 -16.934189504587543 
-21.59369728073785 0.4200409964508506 -3.2355716208432588 
14.154323236150994 0.12015987097232128 11.423870164558371 
-4.692096883291193 0.21685277684644982 21.273047574121627 
3.4078056659301668 0.30973147773102944 22.1677324330452 
11.01940778024982 0.4778696907235993 15.811037280937413 
15.045601371862267 0.3578708628110308 -16.111803742544886 
-16.54645288893166 0.03624309813892734 -13.45625747470926 
17.447326541644617 0.38480845357375837 -2.175809253109412 
-18.79313944792215 0.09204199698504706 -4.524548424364212 
7.099642644927504 0.4790855774898976 -17.16742174062277 
-17.472747502265992 0.08543041042920574 5.944526935744236 
-18.734027034477766 0.154832959773804 -10.481163019794106 
9.090461905414696 0.16875473961995413 -16.292767021121026 
8.80254062043988 0.14274640827273366 18.500050267707543 
18.50498902887652 0.18272019924571908 10.671482597976782 
-17.47324328327561 0.2550715674506266 7.238736300973903 
-21.562406426796805 0.296111491119048 7.900801851276028 
21.210659147462007 0.278667410035276 5.673899140444721 
-22.748748210768568 0.4192760350130067 0.14856672248236588 
16.666317601024026 0.30558933744799677 15.427795305178169 
11.40986721622061 0.0547982204925056 13.526075734049062 
-17.728608606508605 0.051287523870681306 -0.5975627587175746 
-10.40748965966782 0.012050992346739786 16.789270077528144 
-8.3848673968876 0.19867291676127674 -20.97455345113317 
10.399361575577869 0.02679714089892793 -15.199591272101541 
16.586952403262753 0.4405672231963896 -12.976310189906995 
-17.218155940706374 0.35256886586976044 -13.161557039678032 
18.90253068410064 0.13906668299643937 8.934574649821402 
-17.058817786088362 0.4337904857058515 7.282834960275279 
-0.5989692291334155 0.16474175621209652 -22.303449483961188 
-6.68258954571658 0.0858897169411807 16.361476141148426 
11.637165426005119 0.014901410170077956 15.392995851462347 
5.431555954440036 0.43890528546110136 22.33151442417021 
-5.550066772280342 0.10224436035830081 20.250215630122515 
-5.234999033654719 0.13902882583513704 -18.639151678998456 
11.985077311855779 0.1618137217462441 -19.447846321338673 
14.76711351742278 0.2977726278253493 10.855402753315394 
18.98526276700799 0.43146738144924013 3.624742908969778 
11.592449442673285 0.24616748956376044 -18.101105748207537 
-19.235756271138293 0.47980917138385126 10.62023261533672 
-18.496549912768188 0.3577602559889155 9.999795931113331 
-11.368955838522401 0.18967176766723648 -13.48351306693626 
-20.56986878759969 0.4636795409547605 1.295052289743941 
13.02455849611907 0.32698099348972043 -11.918462985853882 
4.304810467236364 0.2507527286740384 20.37907425756286 
0.05645310629638191 0.490171622947266 22.09207914571087 
6.968427412004073 0.020861278937504002 21.918627287031573 
-4.68887705475407 0.045418404853118766 -19.76580214287327 
14.044133834622123 0.32921441915386274 15.976250052190563 
-17.643036329011156 0.4882198736644682 -5.361318244422871 
-6.886457894600939 0.3452448438235316 21.409335808810997 
-10.365222366301408 0.4529521745983438 15.676093564405567 
-5.089061246751904 0.4452547536507564 -22.37795490819563 
17.923928804317764 0.042942725992734576 -7.336584596483046 
7.555205361947276 0.03905508504669758 18.891702227247613 
4.5593541593960305 0.2494942799206702 18.02664922843391 
-17.641902965829857 0.04187334250562502 -4.0133102755197125 
-14.112684863569434 0.04805477903067551 16.55737290467358 
17.68754982789854 0.3210016977272855 5.687855731810532 
19.78959521169131 0.15462180352403898 -8.933973108653394 
15.852265169794194 0.0952910654571058 -11.384443146320187 
20.204752555004404 0.2602324089848268 -8.184117538408263 
14.947415921978033 0.000637293187453869 15.325075334000282 
16.293132165362866 0.23894520253700768 -15.941307566407275 
-16.907586254079018 0.3176792479923898 -13.14227415472308 
-20.53176787174829 0.3130030668552671 9.259198494016651 
-14.652367752744983 0.25644140049911135 -11.66524798650167 
3.462634249217233 0.2503690026897204 -17.378251301245577 
-8.722546961683113 0.38182695414480955 15.902850593857387 
6.245185049251617 0.3020657113815218 -17.66159905566742 
-20.148897989396136 0.3313093431124446 -9.042515648762267 
-14.894795296745063 0.4783654886792539 -15.784474754655724 
-0.6926621409512368 0.2483062076022794 19.963548939084802 
-15.603395719088828 0.4149177102601363 11.250219946972367 
-15.882044803957536 0.1259059088323608 12.650860608587182 
10.779074176754492 0.07601531603514211 17.90671504767545 
-11.304509398451781 0.31607781400229706 -16.953100338919 
-22.53076848369794 0.4818431944419975 -2.4878787440784222 
-12.807364137648428 0.16909914573272006 -14.391532574943719 
9.739107779493787 0.3553131180213316 -17.695980296371225 
14.533174923491533 0.14014824206928134 16.774707925883874 
11.487566152491404 0.4663442857964923 -13.316772391969973 
22.592175104087463 0.43677139902818185 -1.4874956155404713 
5.903129200546037 0.3583415415008764 20.223012033380222 
-4.2894183590301305 0.08368881916562787 18.728572601571493 
-17.172264669348593 0.1512707173717246 8.350278106910901 
-9.460067529493289 0.09709294598515777 15.625559334888793 
-20.508909811510982 0.10206629266451395 6.737493478632572 
-14.625717541686209 0.2732443912217087 -13.98108460369865 
-8.961034388647047 0.179724531599894 16.71047910870341 
0.25377400495033237 0.16948436564979297 17.81270751814008 
-11.964221387349 0.3042464463840301 -13.724378580147603 
4.984225240128573 0.48099440529030807 16.959817822795014 
22.19576443624723 0.4941814343666797 2.780407293343098 
-20.09736411085542 0.06792848148581138 0.3407009824544094 
20.70713285573987 0.20474843595892295 5.797061037100863 
22.27134033243722 0.12424719636566328 5.229016316963578 
-19.47326355657422 0.26836295739463273 3.921687801141111 
-7.507135158635754 0.3723197204153707 -18.340429162514436 
-17.689447544269026 0.04737175364618834 -1.2061704349001443 
-11.244679269628055 0.17736688267735257 17.834187389700187 
-5.635796880031567 0.3653411829018227 18.257649141004507 
10.774004068125711 0.016454135817765003 18.224518566021132 
13.611824454080072 0.3881429688248756 17.91778238265171 
6.551688245363021 0.3062714231826513 20.173913006852086 
15.565034463240337 0.14935888035966122 9.089628888367429 
-10.427468722581132 0.48459321337329225 -15.057998849785712 
-7.5644986061452215 0.004574081339326519 -17.416718979775297 
12.152627896160324 0.3771331835413202 -19.442965883265746 
8.42034766822378 0.4899117375306137 -19.600119044205265 
-12.473527054748105 0.08156513722141268 -17.79003211881665 
15.207051170866539 0.049771925473966694 -10.071076820420922 
10.310961995758976 0.11618722828819689 -19.72380066088975 
18.37414475910123 0.4334254624245922 -9.031982873104965 
-6.440228705604252 0.2941737305916141 -18.868585730913537 
17.46555741897264 0.22834448093569104 -8.702890221260533 
11.353499933355103 0.0746174013892486 14.881010015579305 
-11.417744927811379 0.13499270000143682 -18.017992045100765 
-7.158119978307529 0.1578868704744925 19.211914546589263 
-6.314907719334639 0.10391587245980449 -18.4027069344668 
10.771771662681966 0.4744857768629407 14.93722865511336 
-18.29416974066278 0.27732828232155515 -6.544480376493386 
2.2733541862858053 0.3256265431113782 -20.521820020561464 
-5.3795979317953355 0.49897617715024684 -20.424070681801368 
-9.52577085114878 0.3381699252206445 -15.275146653870475 
1.4517947309827623 0.18063810353246057 -22.826039246867477 
-15.85731560468624 0.2821553365130921 15.551350028443863 
-11.574295668872848 0.3806902863556858 -15.038348267057877 
6.52275534499331 0.14077489334657356 19.87597771720092 
-15.984413421950057 0.4975557299488323 -15.368382540332608 
-14.469650497802975 0.4901405437660124 15.020308038034882 
19.628427542435478 0.0352820901105772 -4.3472276886169885 
4.951661024912114 0.4132952772758986 -21.27963227111099 
4.106957874033434 0.32864103115162163 -17.406626666287043 
-15.931275582024094 0.1686949080567252 11.273477161711938 
18.610318640251744 0.16189808461423277 -0.7429273398486199 
19.935665864581527 0.3894512678506984 -3.9675581471676864 
19.185831961971527 0.003688250236224877 -11.822482863169881 
18.10495665670527 0.1029755578275186 2.029238050836915 
-21.033695108726214 0.37337680553129315 8.095107747874891 
17.038289817514485 0.12349846966120237 -12.165082554654424 
10.324512474084916 0.32449015292052136 -19.239426441887943 
-21.424208532865897 0.1430212849713552 -0.7516486826721489 
-13.991935193915124 0.1195691280988137 -12.423306427035339 
-4.413785196348267 0.11296737857868272 -17.782410230102062 
12.906819579501219 0.22571298455743505 14.361808369105763 
20.734877603998655 0.2625282839874366 -3.185912408755122 
14.78234592814636 0.3056323343025626 -14.618908469263665 
16.001411084043657 0.06603226085040281 10.044209292295525 
-22.00008875388157 0.3904924150932434 3.163338132715795 
-9.889013405556089 0.19543825964706574 -17.090033284923095 
-1.007931310896727 0.27967445309115996 -20.302757125987103 
-3.5733472311100787 0.45884620400439385 -18.065626424089857 
17.416478899587304 0.17311318429990596 -10.467063162492341 
11.053774085932258 0.23690263983145038 -19.642128304608228 
17.116875574414788 0.21058461111477927 -6.9303464749187205 
10.40908318382972 0.1233835946728708 15.569922841875295 
2.186288842806172 0.28183670973943015 17.80964557273735 
-12.96551602881317 0.05742787834834756 -14.740896854764 
-9.260426023736544 0.19478157584193528 -17.843059939248768 
7.197235264660027 0.16049172734863193 -17.665397791052666 
-20.64327402576287 0.42765856269947783 -9.01335373365936 
16.807551219606847 0.18299588549001244 9.920582780728438 
-3.5438551858545444 0.20886882058258294 22.399078515512475 
9.671109604131424 0.14776919663431248 -19.667734061000367 
-19.369499024367585 0.42164332713965147 0.23447428980011872 
13.018725984309862 0.48999612939927034 15.10638825138624 
-15.888707212874232 0.21590251357611095 -12.446218113426074 
16.019766618862327 0.0825183829149791 12.245919894187304 
7.076876280101282 0.1270973078569284 -21.140657186182263 
10.603059596343382 0.14270687008798733 -14.093786503597284 
-17.642896273905393 0.2509841015222253 2.78927492656133 
-12.81791938913476 0.39810687377481685 -13.867721247901633 
2.867608138318231 0.44835744172192343 -20.69790678167963 
-17.878167993076868 0.39533159058741 8.418611704474962 
17.936432863267566 0.054553128401452544 8.212443077643265 
-21.268135397376586 0.2500560735106511 2.9935532945050496 
1.3776181411993798 0.4413241553744343 17.462628346322926 
4.6478429493595765 0.37705793823278344 -18.174933035235888 
3.1657545331460417 0.04041477778482033 -18.081596500421615 
-9.233196045524057 0.2892670385795255 20.042400529924628 
15.881437892694935 0.46504416703966395 -13.757811315218378 
16.112127315968433 0.07040735019544053 -12.602610290909462 
-4.12957465129227 0.3383580067858622 20.59432293097613 
-17.495213280786373 0.1414188021148769 -6.451689699843779 
1.0158795853977145 0.2840566301818478 -22.46699460521571 
8.976493708391681 0.19557629145511457 -17.8959310399546 
12.780211863304167 0.3747210216289335 -15.189630878441637 
12.51945753681403 0.2477128171400671 -14.221777891325884 
17.45545100641321 0.058307369035705325 -11.379778265516034 
3.308337072389313 0.38603090751419245 19.665860628035283 
-13.761023196322904 0.04978611977062164 -16.655233069860312 
-21.235778368425684 0.057916612684591695 3.3595720250460053 
5.250434465832411 0.014525320516989959 21.162303324775543 
-17.458425071830057 0.36114073816911446 -2.783698272015982 
-6.417128070120173 0.03954696602482699 17.09956895790937 
20.154945137058114 0.2367911425348076 3.463879382662509 
-17.406158734141698 0.37216191907641105 12.894032493450055 
-17.84959293452484 0.23440812334022948 9.809683529897463 
18.571019676331012 0.4468668803187198 3.1274536274473355 
3.8941648053391353 0.4904552739861018 21.80331029583225 
5.8523930916459115 0.4470460248768984 19.34811204883025 
17.33131581058122 0.4896539896333221 -12.093516872617611 
-8.686379541404264 0.3734861787079016 16.910607089291418 
-3.8790413702737494 0.4010340069611575 -20.000656408800698 
-9.943314211282056 0.3373726256462105 -19.326751478917064 
18.811726380980176 0.08197289937087654 0.18421775037044458 
0.5090102669712424 0.3416598453972284 21.31322364626315 
-17.851653380122436 0.3948200791886159 8.0251357368089 
16.349744016400436 0.4340528908070424 12.30218456299444 
16.2622145133306 0.3842329821316347 10.394592888194316 
5.510920064164605 0.32956135070987475 22.256817021085517 
15.006408033356287 0.4960300767552635 12.553176322976025 
2.5141127994293866 0.08935946692193175 -20.901940323746917 
-12.77481974240813 0.3273322442941276 -11.974633589898476 
10.605351213714908 0.3651098436740914 -17.223005208059632 
-4.220985382042895 0.2787351979496478 -22.00780894802351 
-10.348425538334142 0.24442412969093652 -17.059993906056526 
6.976456098210726 0.23474516378353116 18.267885239876207 
-14.41774320126757 0.14505653630502152 16.911192200197156 
-4.865145269287407 0.29015388683432747 19.849292590462493 
-11.849556365212909 0.36836327882930314 16.84111778214484 
-4.454524123580341 0.3726318182107158 21.594857597976063 
-13.51550645142362 0.40655261985090163 14.492232666316115 
-18.224883731043715 0.254137441977031 6.30963983257836 
13.121760652481175 0.22296412676308636 15.56420197379508 
-15.722612395074183 0.41197920544581107 14.22771286215212 
-2.2749613612901927 0.18986010427622546 -18.64265698863158 
22.32212642093762 0.3104811628749314 -1.779539902381834 
-6.237699413503793 0.05657712801121284 -20.659416174775313 
13.193242224775823 0.48907569796252903 12.994630120046516 
15.774161349617712 0.2802711608357848 -15.548354286951312 
1.7772915038116677 0.14466777040335693 22.730783742755253 
17.519391200638267 0.3783914451210349 -10.680980590223893 
-12.195829097503614 0.20761423874721963 -12.674757274813766 
8.631620785731506 0.16453674301943277 -15.26909194451754 
-4.780763340207693 0.16090295306360575 -21.921538518400933 
-15.662975895058784 0.4475232405182161 -11.13602508128486 
-14.210699212831212 0.04344763884246339 -16.51679737285768 
19.621169300110623 0.3140218694380575 8.986302030776521 
1.5673049027959707 0.46947390410499024 -22.181878489470556 
-18.213159478777385 0.467848115910754 -12.354172233302343 
-12.952300835539154 0.3864798443235256 13.068907988076575 
1.972827251398676 0.28958558665118167 19.709727586000007 
5.657796216228367 0.313752089820592 18.075945892661707 
8.107107865938708 0.19414322473228046 16.824046347589494 
14.779023205684902 0.0498885182428388 -10.786026453988878 
-21.05812926845417 0.47815024860809135 -7.943749882153542 
11.520453916149577 0.4737011628436653 -15.79106447252485 
4.89276629664961 0.29165126817413217 -17.18665808515905 
3.0187989284419547 0.34561787479515543 20.273095886727905 
-7.63311746487934 0.4751926107415924 -16.606798738688184 
-5.07278578896655 0.49767836141073624 18.69379863045642 
17.64571571952626 0.0984171470280969 -0.08444502126722843 
18.19507499605117 0.3259368952914893 1.6933203553596257 
-7.3352487608334105 0.005059024905592124 20.866615991488587 
-20.85060498791709 0.24467896070042205 -6.41254201581047 
3.7397624962926246 0.2898328331811572 -18.30049588563913 
12.71192456832993 0.05899598361814379 -12.407261383626452 
-2.3867753286507405 0.08182231115693678 -18.102920242688278 
-11.796617875254075 0.3784481778807742 17.234794431647593 
4.269548480587232 0.274972885091817 18.940922877312094 
-12.660935814192099 0.495289111351055 13.90803421028754 
-9.830966412728316 0.2427543355112834 -15.649434808741528 
20.80339996742152 0.48724509483711 -2.369053957396663 
-0.888276340189126 0.4669505371651045 -22.541904885054564 
17.803578025343285 0.20106302095507012 0.17634217871497937 
20.953776164773508 0.36002482573028566 2.9030804291478476 
-18.48959070577842 0.07565153139025155 -11.45227736656501 
-3.4852846890339877 0.2669354182961408 17.705155121661228 
4.4221839039559026 0.3273896333300668 18.97355329710232 
7.647106452038127 0.42192052987822665 17.888346660552372 
-13.95879534693843 0.24520485444403567 13.38841391535661 
2.4246310688497728 0.10795618919367261 21.72815952688823 
-17.977206949479942 0.3740768730234855 -14.326472193414194 
15.932918213852526 0.1066608182460656 -12.552360876762528 
-2.6813323427451796 0.1438785793813956 -19.83891082748056 
-10.811863431764401 0.2305895307068354 14.20643649290136 
-0.9962532540367401 0.11520838632830066 -21.881915776685798 
5.592620134156054 0.07276367185270166 -22.052086946159097 
-17.495634541533732 0.2097827804950621 -1.4798189179756143 
10.127437423865791 0.2684854375269114 16.909745985109744 
21.197177775341782 0.423307259984384 2.612173113303757 
4.749469309063389 0.10116359396580421 21.450271236995004 
3.9841299039595017 0.3693588850024168 21.64598913114441 
11.496362527919079 0.019911480415145122 -15.132002283232714 
-18.350447329041067 0.19654085597012227 7.012586539385618 
-11.516164452105482 0.22680039561242682 17.633103658489834 
12.328356658356526 0.3946930349945969 14.004271772465055 
-14.63362990743504 0.08506139677067831 15.10717749995251 
-20.527765839162363 0.1456890172845845 0.5338214360744642 
-3.3874453318581335 0.3636539322263913 -21.980233991931897 
-15.920319356769655 0.35066543528744426 10.37717628615498 
-11.186132523797202 0.3646009629871505 -18.353615325146315 
-18.420647266235523 0.3499502767103414 -11.984500367619948 
-9.654048075545154 0.30307180988458127 19.343266636284643 
5.322096375065185 0.37393109726517965 18.3181529711166 
13.953229761189602 0.1866332643514897 -16.631596843403617 
18.44524546534483 0.16422258681336943 8.233901721012131 
4.9733993681533155 0.006741989487600852 -19.952403000012865 
5.961931459415909 0.3492467581772249 22.177683585795183 
-0.8020401443402974 0.1271298692923159 -18.65348471819179 
0.4782126845658318 0.4731790237219879 -18.25871438446551 
17.087746664113034 0.261474689950146 -6.170586018416649 
-21.51142116693582 0.188088700511633 3.1952860903603173 
-9.563810917059959 0.17066672015967438 -18.994873201379143 
-17.333237987494837 0.2582150280239338 -8.992706327690357 
-18.60781239748784 0.3264940558843621 -7.897671342450877 
17.788275555626093 0.4465741614892005 -10.668763674261129 
18.899309767306267 0.07150803776927839 7.931221878710131 
3.7872924802260597 0.4640865272546603 -19.190494477288517 
-10.861252440873388 0.29525376115465946 14.815538220058661 
-14.544167105591445 0.24282346133019866 -10.537691429292346 
0.9166281531649447 0.3660872977015155 21.527227310340315 
10.73646823418393 0.252956623875794 -16.22954388103212 
-0.5808490086492144 0.45205333021706706 -20.959795777452925 
10.517020305813903 0.32257699371101956 16.039118751302038 
16.494367902932186 0.2587259221235445 -9.778715585268012 
-17.434637421115212 0.40438225836233954 2.5648785615119047 
19.19540083708712 0.33981250353060494 8.456389313532396 
-3.581936719462681 0.1612027113453512 -17.68697069570672 
-14.699997849692696 0.35502374963504135 -13.80957717269148 
18.03850370888458 0.290628293217264 -1.751120083418629 
20.03600423745853 0.21081691553940468 -2.9423058203328165 
12.450124424702608 0.01394294836548432 -15.35355045631646 
-18.424170931801548 0.3232466027883258 -9.535505727951142 
-17.502902704334296 0.43727071336126294 -14.43464207305723 
18.04276911545542 0.27865254077449264 -6.170472720895871 
21.55236178110519 0.19554635479146182 4.314429682274545 
18.16387835664272 0.0828264346664398 1.8313407714089758 
3.2949082251545336 0.3531185059522962 21.861029832607954 
-16.10614140905401 0.021902516965515817 15.594003977987361 
2.764208113653942 0.41980471443736067 19.690365368659066 
-20.063363728378953 0.2955470026312084 -1.6769373305171715 
-19.377686536682216 0.2780125796985527 -5.882006689946858 
-20.80197444392119 0.17919360740050566 -1.9191978766841566 
3.787057082677429 0.1326398139380967 20.666057490657895 
14.884957281639666 0.25076041184747244 -9.815148648178212 
-3.4910821547493636 0.4710019801427455 17.786492587432278 
14.754205826913827 0.14331699931574515 -17.119941273358638 
-21.956794175672673 0.25391793846509864 1.8037916408972234 
17.559140110111247 0.04040973140941051 -9.193758083498794 
21.077311922918106 0.25037526836359664 4.490392386181925 
5.633432372975187 0.08834691735341299 20.084191412207907 
10.242035268325097 0.3872011387427788 16.76439915912112 
-22.844785352810753 0.48678306232486207 -1.7122818536744386 
-16.019748571596494 0.19789923999103282 12.04286033373731 
19.60715093724118 0.1298355615151393 -0.9433112340891242 
0.6611410658496367 0.3382062421566521 18.123554373773267 
4.130960319456729 0.2647510419084031 -20.50734592612551 
-16.138747651495205 0.4943935507113109 -12.684474333044637 
20.27111039026565 0.23967411249957538 -3.5003161292979845 
2.05451595420507 0.48672995524448487 -21.097756605370805 
-0.5925387586690627 0.2618399403726169 19.367231833157266 
-11.47678508676932 0.10001702892112835 -19.899852287639327 
11.675788629571207 0.19677886249633025 13.123227966517433 
-12.525038698931523 0.19377410973104242 17.776990956527516 
11.999035701491866 0.18440168884087305 -16.37374797094992 
4.504547121884979 0.4323593339556091 -17.16899319703015 
-2.1861958084409125 0.34507953689015447 -20.135386942115236 
18.32605161200522 0.04673434403498422 -4.431126703792817 
-11.503443264059555 0.4874951439587566 -18.20654040423495 
-8.165801955504644 0.4177987324104764 -20.429155345781368 
8.441975871326072 0.24313823811378665 -21.25309987280036 
-4.58134917612902 0.36293717914881485 -22.384178130552186 
-21.520439270047415 0.12389880567106754 2.45015096642242 
-13.006660958926634 0.36037958770033235 15.176209794041325 
0.27865190782303256 0.06504360311238944 -22.73713120405286 
-2.352448395230385 0.47333864768693784 21.712640100558538 
11.787640122734413 0.38471383722615765 -18.015137943487638 
5.541965962870062 0.17833955009129532 20.151591138679755 
9.23903453682808 0.4175485332035889 -15.372388131395946 
-6.751784456347462 0.3181368501947698 20.446508343428253 
-18.660219436250888 0.1800474555007192 -12.286529316340546 
6.552331208634875 0.44999188921433725 17.49033738650926 
21.588270607010678 0.22770836629434293 5.265366328863587 
16.897920436641552 0.17447236713148606 -15.011111197056987 
-7.742264116124956 0.17133142060405265 -20.326025509971767 
7.224725238353537 0.13598655931925996 -17.023647292168995 
-21.415154932878632 0.4956610381918573 0.4117227394186329 
-13.42539033764573 0.1280632830266053 18.223296851779736 
-13.026915176604868 0.331016107741311 12.549860422173055 
21.726999181043066 0.4670415159204805 3.4265506125872407 
-18.80047873669032 0.2236089425007336 -5.256708032273097 
14.879946615166439 0.2768350673150409 -11.723424627362316 
16.61991936503268 0.4568216638316654 13.366583528777419 
3.240699679079976 0.3837583224425949 -22.042400518043642 
15.04040863248308 0.4803869338479951 16.54376422279564 
-13.455698195002627 0.4598276259385519 -15.534997172907467 
-20.33320054176496 0.33516219521529284 10.307505428200873 
-11.586323361894872 0.15788515291300792 -19.593460919732955 
-21.90572684523401 0.22416570555345805 6.290884714498271 
9.527006864944036 0.4103423640585388 -15.314670030490024 
-19.239437077380884 0.38170356313215686 2.0132282146532 
13.531064230456929 0.17241752881528077 12.353411028333635 
-14.13614765191071 0.16796017266212665 -15.022833569546242 
-5.893249469427649 0.05831862315106012 -18.799384329175687 
-19.30188749872834 0.4005689063738491 10.22744547462186 
-18.340006623056635 0.3250441145414722 9.711659728567938 
-11.232665908778502 0.48709802015303627 -15.216513047434741 
-16.11763306001634 0.37499095580254904 9.151572468419163 
-5.815017370770731 0.43839478196083115 17.416107262941697 
-16.688723789323827 0.13849496272668999 -14.190105021840631 
16.835913416736602 0.49553588422570555 -10.211203103396366 
18.032803388669535 0.10803374597153187 12.806750419455133 
-17.16313523996569 0.4158461143022942 -4.952562983292218 
-7.993012016193409 0.1672110513053961 16.46216072051181 
15.721636346727275 0.043520205267009116 14.292945143217937 
21.239186061238993 0.1699140767444705 -2.1070083107303312 
19.378270994512697 0.07464596642213978 -7.397650689505321 
-15.737538834667182 0.42578394576428746 16.334339551952176 
-11.899488254315585 0.2929024234462448 15.894768869182835 
19.853439259702043 0.12193623071960985 -7.373522398903385 
13.06007573676671 0.4788795469242856 13.45328486494581 
-18.893093367747728 0.11712011764568458 -7.332259688555755 
-19.166652686198308 0.08334950076727232 8.010299694789282 
18.828390533862464 0.4130610878906022 2.08369647077083 
-15.724278108328113 0.4010950172875013 -10.314358497483953 
-13.095181292076457 0.14865240025494697 12.717057667208513 
5.495551422051568 0.2242327003186787 18.35266745900622 
3.14873373126668 0.24709247025140085 21.80485609166106 
5.415503025246576 0.3474615271155031 17.125592094582192 
-17.748635478042036 0.43327308189124414 -12.355960707618719 
8.669954611873946 0.32389954056756093 18.968343987713137 
-3.958773222631107 0.03168646843929901 21.71702348974956 
-8.490764245701854 0.1296375410752003 15.341776074400839 
17.106398339744505 0.2174287143533704 -6.349223303367921 
19.04542211382254 0.08921922530385695 8.743164228431624 
-19.557712303994926 0.42298603494583414 10.053662078100663 
2.344051104822567 0.4998853046930292 -18.675266015751916 
4.618674459714336 0.48312441103901343 20.5815737796844 
-6.543915165232834 0.14626498196672605 -22.040691977781336 
-20.26804751781088 0.3078656840037868 6.57513304860231 
-19.811144400306485 0.2990492153658476 6.240820010295218 
7.678464292291351 0.29357382188891534 -19.28877235513434 
-3.294517912003782 0.058995664065885356 -17.474586895301677 
-20.501449286827498 0.06517703633159544 3.497972918379466 
15.539794296940816 0.0636404329683607 -8.988572779351609 
0.9614541412496392 0.42695937893060315 22.85650159506152 
14.602380181603083 0.0152250898536746 12.11649817382539 
10.340476769164287 0.48118923955279835 14.19874521731781 
19.34897715850993 0.46884289679939567 -6.633828007693317 
6.012631016866152 0.21234653451720642 -19.464273346160255 
-16.935560748764573 0.0050657026487454515 -7.810723839701519 
13.809985213483452 0.32313789736411247 13.657950394721366 
-2.7471627895726596 0.2880935863494156 -20.69359508359695 
-17.493679051965792 0.22796222047982206 -7.262379891935738 
10.212047363128786 0.00575521750242447 -15.501226450891108 
-20.333961140002668 0.49726190437844203 -5.418983444808654 
-4.642147097204922 0.07360429197909502 -20.24185881223638 
-17.06188279146876 0.07277589294319253 -12.94904686866312 
-2.013793054271026 0.1171240775506801 -19.568030518553964 
-5.892443598366565 0.3930675409656636 20.41865780147117 
17.2580657440712 0.43130676388159933 5.177412112042517 
11.787170405313153 0.45849627832274015 19.331308439816972 
19.563121452128293 0.176248108645793 6.553027113903901 
-21.797873453665417 0.19343606736706082 5.163901926807348 
20.59281805567731 0.3146727365341489 3.6584711139824515 
-7.5939815287532655 0.165419765715147 -21.64742660613927 
-2.0906586258690747 0.016989973095883237 19.676093422621936 
-5.451301955977553 0.11703068134821193 17.834475494608895 
-17.667254634636453 0.2549105665018486 -6.692663599782082 
21.097891852185285 0.3572988887592444 0.262777640444958 
5.701486014111053 0.06184381365918373 20.057903899033228 
-7.126768034695731 0.3674521243238902 -19.66323875613572 
12.304876374395043 0.1674453993829591 -14.137481052509248 
19.104151941748093 0.011851647819467626 -2.9491869364349976 
16.31919455403319 0.45292753598335406 -6.3708273418181065 
-5.63162518557121 0.16838578371097612 -19.240141532710236 
11.843979571254001 0.21133536978115125 -19.684322404927027 
19.474673789363422 0.46843859820546074 -6.113213729358338 
15.785357230359637 0.005646666410082268 16.30886505165288 
22.208397188475168 0.01436633135576082 3.70003909991562 
17.372337030970918 0.25326237778194033 14.422207294551269 
6.192418327262791 0.42792124530196723 -20.568490396325323 
-4.843381214778665 0.4353624406354149 20.036359847227498 
22.78376822372191 0.3334053792120655 -0.42597527731790863 
-11.429413901299196 0.32976202834469265 19.78696080595767 
20.027297210334957 0.22024872052866307 1.9692700404258472 
18.31391355409327 0.4207304852604676 5.107716489412079 
-15.021447474223164 0.06872400815856772 -10.83721902444882 
19.10982326491372 0.0845269728819047 -11.528131053083769 
-2.6194998298491945 0.3281573033645334 20.814357944112384 
-15.328347105089433 0.022340519704028172 -15.072116014481358 
-13.586383711498277 0.3470907686579538 14.545475299846279 
20.72481839858491 0.2002617936959391 -1.8809253062232199 
21.866656065247508 0.23062531536251624 0.45499824865967403 
-21.975855049786094 0.0334149464039879 4.17610463967049 
-18.57597740972974 0.10720460444963897 -7.137904154296019 
-19.04818629385589 0.347989661125689 -11.052857664373352 
-9.99787950598353 0.3556028313444255 20.569634307908952 
16.70541451584227 0.18142835841582544 15.324914108371352 
0.5699072550554815 0.3617508539572223 -18.262736498401715 
-19.212127242849235 0.03794428190834248 2.1732012422130342 
19.718998191120463 0.3397402118844554 0.5340055749767953 
-2.530744204732487 0.34909224642758047 -18.556559043723965 
-17.250420508484968 0.024505032486967226 -4.9657080283823625 
12.62385727179019 0.01717012014421493 18.810454846546737 
17.877688142519915 0.30044710070977904 3.312369505876283 
-8.859465554899671 0.2170439058770796 17.43397696962953 
-3.9861709966921137 0.33052338702495665 18.997164356167467 
-4.517551746969818 0.38324103854411457 16.996086565729595 
11.622435120207252 0.15680186154754217 -19.60914627694931 
12.352841608172207 0.49586308482390257 14.358822091090051 
11.371510731459102 0.4316055702855019 18.861925531776276 
-10.511119523975752 0.4928225483926621 -19.936149285274684 
15.843421709024753 0.21894976178551384 10.531502228010396 
15.586566646401721 0.05300141298633748 10.636027549951056 
-4.871540832516449 0.14669025454827594 -22.15749087389902 
22.016306435575657 0.42909604456935524 6.072473486812289 
-17.48168317185012 0.20473036676607925 -10.889300750496671 
-3.9046336844626737 0.20964013586571328 -21.863859734367505 
17.646738312606285 0.008248320316605662 -1.4472014761376062 
22.36725338621793 0.25725000690815947 -0.9953768188402115 
-9.249361836849747 0.22566251725925018 -20.64946562105202 
-16.869474857816837 0.4706281709329319 -6.901640063052626 
-7.725924887837632 0.3926219864094148 -18.990027770630135 
22.100262297291813 0.07707147342861093 4.636464121753136 
11.796051247738083 0.44832024619607364 19.676693608106508 
18.30795788041177 0.34059276728731697 -11.041919032653036 
16.725025252686848 0.11962303080538605 15.470911006770644 
15.313002157391503 0.413079527670653 15.336104200003138 
-13.330143461518542 0.4030328042427258 -17.570090779878807 
-9.547070287527019 0.4936754657804438 19.053264022387935 
19.577394989950125 0.10246642170964015 -6.305195379803388 
18.018471371431133 0.13547490153165975 2.66425866719595 
-13.961362798997367 0.356093468308368 -13.799845403311668 
1.7242887072949553 0.3468055093672918 -20.69294061863313 
12.25253372495415 0.4482061896712245 -16.594642185491793 
14.049843940738539 0.39679145284470946 12.908293014701231 
17.945853645693845 0.36633727290557655 -6.744830997955473 
11.148643546971384 0.17074003533533422 -16.47534518007169 
1.5820157517021576 0.159275541849702 21.074001504388118 
12.505421525804588 0.491488554496822 13.310658208346862 
1.9860750471540658 0.2482106422823071 -18.265544475436556 
-19.24820703351324 0.1056874039259636 10.805712571737006 
-0.8190856752702405 0.21349496496238357 20.032266102654138 
-13.652179650654805 0.29255279516128835 -16.287271837806696 
-19.87549135804063 0.37811831153449466 5.320133672805552 
-10.387354338687558 0.1949193716803017 -18.575749038801636 
0.23770792978972763 0.017076269797698163 -22.02907098513843 
-2.3437925310115006 0.2842324027839561 20.483461677940422 
17.88938325602885 0.47755128446134615 9.66987473282428 
18.26676253562993 0.34528520713036154 -8.2959599027995 
16.419105624760622 0.06048757242582864 -15.649784015510017 
9.229631875110202 0.010255970923987279 14.881455162681585 
-3.3031323322475057 0.11915903142213047 -20.224719834231824 
-14.182609360400201 0.2874334011841628 13.618390315392723 
3.5239276197883274 0.3974873957808338 -17.93258609127258 
-17.21912393146854 0.2007731775283244 9.943642047987382 
-18.24292359860436 0.31882275067661614 4.347319376245129 
15.54545734598898 0.30072681505828497 11.94321049156383 
21.470623953709033 0.38780756192154514 3.295808774720017 
6.288589857576982 0.022822925612213774 -17.562479622423258 
-0.1597009612332922 0.35298676654222894 17.62187951552087 
20.76621589777627 0.1290075564364811 1.2802636893401753 
14.77128329853985 0.14511464880706076 -16.92972908933046 
-14.331271542712104 0.2707992054000876 -15.749881306903871 
-11.190726534156818 0.44568475495630727 15.76974944569123 
-4.938646572453265 0.23651297953067996 -19.422436835951974 
14.662832531213299 0.38993238169449124 17.055202671229956 
-1.7719587351071215 0.38644710635527346 17.78079647471206 
-20.634535470211535 0.028088533851320374 10.054954583731096 
-12.564621850557383 0.34143446795316146 13.70624562080451 
4.652790042679846 0.047810178658973135 -19.601287658640924 
19.82670248905308 0.17494707531992404 -6.216217348384892 
22.79505308295806 0.047694217349545265 2.4880557419541995 
-14.155107074249962 0.44500252456014777 -17.18833978520919 
18.748091272104766 0.01719516192980375 -12.424869628063018 
9.228424083884368 0.34646632342049316 -18.722249283186922 
2.762025914497306 0.03391949956350909 22.584664382247805 
-20.32887270095238 0.03870362797636545 -2.1229609779139804 
10.548926558507945 0.32403505225757434 -14.682021802293862 
-1.1221650349764132 0.013925918143668503 17.613186283577736 
7.061397256510319 0.4343115488699785 -20.630210274426567 
1.967259277400821 0.1676179407990082 21.524212948415943 
16.632076004721643 0.4164025364047449 8.793608248954353 
10.39403980985597 0.10249578486347827 17.50370988805285 
10.734083711685559 0.2904754944017766 -17.08753161852104 
-14.848157719557939 0.4299512251071906 -15.442171459580807 
6.325917072831395 0.10808154076809545 -17.802203869822605 
7.105871104578101 0.2877588083269521 19.057581286077763 
-15.209187986690617 0.4785262476117088 -11.300430388170273 
-1.0888149472059787 0.2580819591488242 -19.259086909835002 
2.4751479257333537 0.10710524320178028 22.33998207439395 
20.819286159136425 0.2153861115503367 -2.645951419618244 
10.980359483720466 0.05115069001126549 15.35709606391458 
-6.035670054991071 0.46435520145216175 16.80234909258613 
12.823541283952471 0.02347452078768325 15.795433027958088 
17.505976907148995 0.3117104801774261 -8.633600905616841 
-12.177202968365833 0.38162136140887065 -13.703485075867885 
15.7025925710571 0.42187346260275416 -9.824493623673517 
18.90823201603416 0.2790454910852761 -4.74217870570047 
-18.258261736650216 0.4017390824721717 -0.9230515316130546 
13.846335575348421 0.32747202602482717 -14.189159395828165 
3.9265346360571525 0.2262937276105696 20.806013327019055 
-8.964517797919438 0.31979289865538885 21.056126034324972 
20.11630051168171 0.45163071880445643 7.432866377217135 
-14.194048966209344 0.4733960876466282 14.026202605541284 
-20.020036193727954 0.17284822442318915 -4.639295863215413 
18.311245362364627 0.24085537460199813 4.855741886943811 
-17.38246777303766 0.03166984472757234 -14.057274882419886 
21.254034897911293 0.4023315453309291 -5.247284680028167 
8.56209290501076 0.0734354624130319 19.894786274823133 
-10.64546968940368 0.45764823102414237 -19.67026681632553 
-14.490210772347904 0.03065259205212517 -11.6917502276306 
17.891769861831182 0.4122129126307207 -4.455418094804359 
-22.90575515379137 0.00036594859882055353 -1.926029003622747 
-15.881857017478302 0.15903409041107103 10.272376773534887 
20.52401400238914 0.2732679666853522 -5.967274479942065 
1.661286298037979 0.44085854955457265 18.168277227276665 
-9.834744859574439 0.39576681203736735 -15.82093551852156 
13.787731837729774 0.49180069532197485 -17.50446963546432 
-20.29727082131657 0.3128978864742127 -4.509244490173078 
-0.8809336575106818 0.29861276877230525 17.49268243384359 
-18.04113237135499 0.12151169584689037 -6.884690735638474 
0.2153009873668105 0.3147530069893726 21.18510867047351 
22.18001896399061 0.004514662942423142 -2.893493569423734 
4.391844637958996 0.05402296943654755 -17.319957136273345 
-19.79255172808002 0.4688308309891529 -3.6761198237664683 
13.596461229535269 0.22284269818078162 13.771992636436398 
-11.84268869019764 0.17695669774635525 -18.344952530031474 
2.9607550093526855 0.29918517745175865 20.475654110035247 
-17.478676222382287 0.200020042751269 -13.821464504089365 
-6.281660549903731 0.16594718963466704 18.233597510286096 
-13.521712186718563 0.4195578313388501 12.15372721137103 
15.648915021479722 0.24696048532571024 -15.584837618753271 
-17.355059802334626 0.0013787344330151163 -14.456058148132634 
21.155209147023715 0.11446593997716853 -8.360168890474597 
-4.834464507920979 0.15738815937084055 -21.896528908629403 
-21.36367384724991 0.3345500496803719 2.344640984557588 
-14.720650353533777 0.36045723482976444 -11.318308175334643 
-5.05550080778485 0.20755152802541088 -22.35341725073073 
-1.7939835246860296 0.44123542726641984 -21.96781572951936 
-18.813170122347113 0.18470516227608091 -9.591971540752013 
-22.337487165371556 0.4451164945970628 4.544504017903143 
21.28314837147812 0.13312760164633358 -1.4075126699702278 
1.1593554950382023 0.4595494685493473 -19.38178336268811 
17.820377864567646 0.10787412824400311 1.5207814126616899 
-18.309865221664463 0.4237503882634938 5.304359812596511 
-18.002845581149725 0.06854383197325425 -4.396633538186769 
-3.3829802443933485 0.46125605918841833 -22.032658771188704 
-14.196352502734765 0.2686264023962629 -13.271867643020753 
-20.858480690567784 0.3416121400627042 -9.061432637404067 
1.9180491113910685 0.30146001544523804 -20.14803563899281 
-21.483295153976158 0.38380046562516607 0.31120762774428723 
21.05285033941432 0.0026675128508285018 -2.510390788024013 
14.64463976252366 0.46555555726511927 -12.700719170205415 
-18.97866360236705 0.15867962860956575 -1.967802232518309 
9.832867288905504 0.31147730714975674 14.909149310180627 
-17.55598112285247 0.1708032856370179 -12.373881824281142 
18.995630808657744 0.17243391314863044 -10.869662974147756 
-15.975704670356969 0.011090801004597084 15.088590129211687 
-18.237783658121135 0.009292861830508203 8.584761968842056 
-7.346159269077408 0.14037287457861697 16.472156199796757 
18.825170798866562 0.3488478735226243 0.7708806152201907 
7.22397939173451 0.08977143566741591 -17.19196407776551 
-18.04924601206047 0.4317451605216912 -7.630243209221899 
-22.799603281174345 0.21640662318413567 0.2067966358349197 
21.126068002139192 0.2168208947488391 2.7519807849833375 
0.905607522155122 0.1994175976641886 21.109829193262645 
-13.898159517036476 0.0124858298913198 -18.161877256112895 
22.19125099866042 0.29237292943142223 -4.559568048533581 
15.174484040488412 0.004933188498983387 -8.762443560139165 
-22.795159564354023 0.29373980326533916 -0.8265914382258871 
17.015176897878334 0.23510553820447416 -9.10607915693899 
10.416585285758183 0.09376066135005107 19.775105168734605 
-20.202414666619305 0.004230773379215735 2.666276282477187 
12.209198215669758 0.32574960597127667 12.988551309271703 
-18.96342681438101 0.45340286149058556 5.6491308078228215 
-6.51719706284234 0.3592561422217442 -18.939129068742197 
-22.120456301665428 0.33502295670170906 0.9259923128571891 
14.155043595765415 0.18201268350119082 12.285306747544452 
-21.25066229119768 0.005330882689043637 -8.521251485144036 
-18.790902194000836 0.17069442186995437 4.8390224171007725 
-20.22335631084339 0.25872411070973445 9.495505081165279 
-12.527337307271056 0.14619908348144378 17.35653912615949 
-12.933462629348794 0.1423664858141307 -16.656489155054615 
-7.728526308262832 0.49565054326768626 17.851964826749406 
-11.237369718785883 0.3627764911713008 14.494089339753508 
22.862116370107344 0.2764035373134868 0.07782674380436042 
-16.90206262926348 0.020847287164548034 -10.052594356423825 
-17.910973843462237 0.2649787718978427 4.821476062614294 
5.804802466750489 0.14494268504858393 19.679277197562406 
-16.509656945269732 0.4372724706427323 15.179257215948574 
-2.5403697664641287 0.17120311972456265 19.591257835038746 
-14.986524084345694 0.032508780206216115 -12.896621713716794 
10.310888812630294 0.011411258159255366 -14.931603194339397 
-4.826221611000777 0.17632763556771802 -20.465309092418604 
18.43378826957261 0.4042524340158427 -3.7552408247956977 
10.010788142062196 0.17652337361827097 16.55355235641176 
18.33089212641531 0.40459503844178246 10.618675083571638 
18.120062489856434 0.10639786338028778 12.169573267204596 
-12.984213090498372 0.21318190424528827 16.70244722171587 
18.493831508205822 0.3740063591207615 -10.90796249762566 
10.289731473595076 0.1699709958553095 -18.921479539547384 
14.178974745280158 0.15869382256214082 17.563501802878335 
-11.290629080503331 0.2709098390813195 -18.452076460195997 
-21.288347578298318 0.16674909952381 -2.027112251646068 
4.681367099526425 0.025053822192125375 -18.308598111276062 
-17.809715175136557 0.20260704498769777 11.146869648469108 
20.638998318194066 0.42135911410048127 -4.05306689148875 
-9.30350039194895 0.11150273852628495 16.358580461707824 
-18.023705039041047 0.24651577347846954 -6.802664814969612 
20.68793128354403 0.41157518618188216 5.195599469589659 
18.505198146821076 0.1037614226529131 -7.8555062327980965 
-19.289897427044025 0.27552146472899836 -0.9235107862435982 
4.006827415133218 0.3113062341529341 -20.037760621791563 
-20.39698969348897 0.24923731800422205 7.923983464360037 
-22.20913053747307 0.3332382541943613 3.5729736667293737 
0.14885394894225693 0.3949019618858183 -22.127902268705622 
2.120785010741711 0.07030612535670105 19.34224838426754 
0.5955849401274103 0.35718883641239535 19.5174170169907 
13.112294400140769 0.3239472985841326 -13.655922366993247 
18.729676904829326 0.06013176754518762 12.334108754274801 
10.018580598338287 0.17999811118913117 -14.857218554588512 
19.200953637933416 0.2363616465247082 -1.2202775053146133 
-1.5588131372113865 0.4825983616303604 18.228305527236007 
-4.2008319200679045 0.3898257932560307 -17.56246424054608 
11.891517388157235 0.3955121280416411 -15.581969452751043 
15.474499209585344 0.2913633049201283 -8.865987451685267 
-11.743825633831378 0.09887927786337664 -14.856643826272842 
-8.26136955796443 0.3789082738758947 -16.044742070896344 
16.165521308539407 0.42892968071789694 -12.14244459034251 
16.86238549641798 0.2349041235453565 13.939761996968059 
14.197229937419591 0.0160807284570072 15.793201405562368 
1.3866952578090095 0.1863422214869236 -18.72130867560678 
17.193289800734952 0.3682704048496016 4.776455544256838 
-2.8970357172324555 0.32334873438230954 20.974860223806928 
13.298648922069772 0.01758969506148761 14.290710116980465 
-1.1739666716508854 0.10122077613711905 -22.05817411020983 
-19.986767821809153 0.4507923569118806 2.932576264710679 
14.983159466521334 0.1138168493921935 -16.153326873623957 
-21.34665043297917 0.07708935140619666 -7.781345212504068 
-14.06929207661445 0.07056071543389958 12.639997946607373 
-10.41624122469383 0.3895555504573992 -18.365856376270717 
-0.669106574989229 0.3928589065111523 -19.570312046496483 
15.036440871805237 0.2043618930736692 11.410169769821337 
8.5108888003675 0.38090122592433445 -19.921989410160453 
-14.24631861582264 0.3217442409277587 13.084585665502157 
12.814210200844645 0.47979787200117596 15.871648365559924 
-1.015026339265605 0.4212993227025838 19.971138572939186 
-8.77999620998202 0.2273412812359084 18.345369707569596 
17.702544010965493 0.05134728352671275 -2.716452430397701 
-15.573310264553314 0.3527633377854667 -15.13336656947203 
-16.773250150139337 0.15929395195490176 5.872784047857135 
22.293204152060145 0.3921643588658802 3.3883539381277 
-1.7318511067743156 0.34023292827572044 -17.76296518074151 
-14.435771563114232 0.1879364481714491 -17.877903371640436 
-15.666127077420905 0.3833596278513065 8.493264722303161 
17.82999795941469 0.44780435895985377 8.274137115327795 
-13.50113158733155 0.3871196532484895 14.014976609533878 
11.982262075858722 0.10126028570964885 13.097068117029178 
19.406362091500487 0.2293290159871546 -3.1424769877780387 
-14.126241968566967 0.4533805528478798 -14.500067437263606 
-6.30859853438325 0.061501113794527607 -19.167643613117665 
-14.722477427333757 0.04910021692282529 16.75245198286336 
20.07290902996928 0.419098426191299 2.410675058912667 
0.538853004372921 0.03328365697343455 18.39733495411759 
4.31394645262447 0.43835168470738084 -17.84697111465848 
-3.2686026936596875 0.2657682546812387 20.871654324493544 
21.668202646732404 0.2206365917322345 6.071649228804334 
-15.206042048966513 0.29885696910718756 14.832554467662256 
2.221225727920539 0.4956746840725403 18.93429620659238 
17.785142719758642 0.42940121917347646 8.970462359963522 
7.16118186898503 0.3180060773292543 20.10584591640145 
13.077481950290135 0.36255382817056536 13.011118881262663 
-2.655104037497226 0.32519133427404767 18.815897615406364 
-17.26123042416872 0.03680900239284568 14.459053232259933 
18.34459882431266 0.30457152007340726 7.1765104429534095 
16.05580702662559 0.151375703332445 -15.054596319304771 
