# .PCD v.7 - Point Cloud Data file format
VERSION .7
FIELDS x y z
SIZE 4 4 4
TYPE F F F
COUNT 1 1 1
WIDTH 808
HEIGHT 1
VIEWPOINT 0 0 0 1 0 0 0
POINTS 808
DATA ascii
-12.870183580270428 0.38360262886224283 -14.622105138947841 
-16.13046441269104 -0.38759815655711305 -10.794316335668494 
-1.609534869628736 0.4773807860741507 20.594422170390448 
21.322721991654703 -0.2359049065481359 2.92354829176519 
-9.986478640409187 0.07123411896239928 15.755876352574083 
19.574355084143473 0.47166894792185476 10.020191674480623 
-19.341228216935058 0.2947930546435654 -0.01581646201096681 
-5.142405224704322 -0.49122010256483306 -18.741071156308024 
17.41499817797418 -0.4068776333548938 -2.943447946143557 
0.9740589008558731 -0.4101332732752675 21.94915025695467 
21.971061452750444 0.09291716108241843 6.1515519557702225 
-11.731280838360444 -0.4943958495288243 -14.359965007532127 
-6.6913565295428485 -0.4618637560982033 -16.259329042414173 
0.040966093511844166 0.05417329540330651 -22.117295872919872 
-14.221301292028402 -0.0068131357566695305 -14.288572799691469 
-18.707081816518304 0.1599188949212791 -7.125890437616279 
-1.1800008439143268 -0.172796940764275 17.500210346577877 
6.663738426776894 0.3737929178985959 -17.86099343981365 
-22.407378619986524 -0.2074724481686775 -4.603372903695128 
14.56327349183161 -0.480108267793673 15.595671966612143 
-10.899872411314345 0.18825535931009652 -19.527235203645773 
20.05154961345669 -0.44570610487359286 11.03642037295508 
-1.0151979746465283 -0.0015822862883984046 -20.206737230325565 
17.87579199827476 0.3546220972054136 -13.58937092138976 
-8.007228139303058 -0.2859877338553699 -20.047703310018502 
-8.680586032817038 0.11389812050498727 -18.47548735069003 
20.642916306920636 -0.11186187521209479 -6.446846810143956 
3.2690882752274257 0.1643363414664376 22.589342201768577 
15.52517919493338 0.46769563801842173 10.877043213092758 
19.26341904339164 -0.10705915803547694 7.432239789660132 
-10.755834875605961 -0.15513596247329553 15.762026861886456 
-19.387482868329258 -0.4497648076237749 -12.267048917031728 
-18.660954245707615 0.19719217421630253 7.777192039676703 
-16.968435225189555 0.2892715171350305 -10.456088709020255 
11.169877372008788 0.2019581039463353 17.25034263101207 
4.339256985078221 0.4039742482668357 -18.739040229491003 
6.296733846744401 0.2812179380993346 -19.767879652455697 
-18.62662009404092 -0.2696810994205733 5.343501247391758 
12.042217078424862 -0.46365085078836965 -14.699691581407828 
-9.510180563707056 -0.4312389202248874 14.960186245581234 
-19.193573886406064 -0.39603169686079387 2.4263550411798547 
-16.6651595852709 0.37076878319263995 -13.401815139351761 
-21.921197140241407 0.43545401567947994 -4.347343043914014 
19.75166591599928 -0.18499418487108754 6.589134534402264 
9.880222817609782 -0.0052912132232826314 -19.385926616947845 
-1.4728177954348098 -0.1769019593201938 -22.118751511213528 
-20.447737644993698 -0.250301386249007 5.164243026548976 
17.368734691656716 0.4324601804558369 11.606949598246201 
5.598751177924992 -0.1432535944250024 -18.019068767543313 
19.93416566667975 0.23554192978355937 -10.015957404511134 
-13.18712426529074 -0.23812274112906606 17.615017335375097 
-16.331123370348237 -0.020047957924002047 11.939545243301449 
-18.18823526286609 0.15575725494957626 -7.464431639212904 
-5.129194785573476 0.34543914925283037 16.965925062350607 
-14.831735440277507 -0.05338261232439112 -16.12485559126895 
-16.905898495788986 -0.24665704515641862 -9.343939145022404 
11.485187987946276 0.4179306758778437 14.756802595143002 
-2.325172435701562 0.43451734058794866 19.32336318193947 
3.6956756632560537 0.09805669584128007 -22.442592931538794 
9.340761264269606 0.17118397530795548 16.506148385836298 
-20.041107763728878 -0.4998881892905547 -6.951815645192729 
-5.403737364831406 -0.22827783216583475 18.25300900922893 
18.944872466207133 0.17269554472450732 7.601693660731741 
19.443685012983163 -0.0017720544039284691 11.062110284125772 
13.710807423163084 0.36372399047300863 15.226796679099222 
17.070442597263344 0.26711635361770913 -8.841133590652351 
-9.809549027396171 0.3632475490148176 17.014271443021855 
15.660621187626449 0.35959758284095633 -9.322724514585353 
-15.625960844357857 0.31498315941500554 13.719822235719366 
14.821843872211822 -0.06312752432057422 10.033118312958148 
-18.702012984470468 0.23026601738741248 8.658315875960183 
8.419393299932672 -0.1066038852656036 19.94408477713401 
12.142302784430775 0.06484316845200222 -14.100713012203766 
0.3929860497879087 -0.0158001119317579 -20.025688778593313 
15.585484602554383 -0.1688972465998566 14.341384403850542 
-15.471598797060441 0.4010428667017819 10.738566532886692 
22.949590529077906 -0.3358189166745297 0.4706634840719906 
17.588991341895444 0.027356006091712626 -1.8301091697315066 
9.50957757105666 -0.11611661327051481 -15.540317611755002 
20.588381814542913 -0.07066264982349779 8.518754119053646 
-5.781642548090515 -0.44374480226999335 19.985635356783906 
-11.783971935702416 0.28826380125777407 19.534485981426037 
-4.7055455070006955 -0.458385228323118 19.021362025483363 
21.487647277607724 -0.0795385684771871 -5.058537620383961 
-1.2484472079738391 0.3805235498651086 -22.150460372828867 
-19.477437312274592 0.027161146079120124 4.33494938390161 
-19.838894411133428 0.3133400534390145 6.00700717221722 
5.990756832926575 0.22883711830614506 19.248740331448598 
-0.733887521127065 0.10179086599035381 -20.852446657228516 
-15.61576608295121 -0.2144783082741748 -16.688483607680286 
16.1421535567656 0.33555330734948685 -6.939243884354076 
-17.856171990710628 -0.10699107238260075 2.742692011507219 
20.666946264514184 0.3417444177400608 3.241132571914236 
14.478577722269597 0.3553349087805706 10.833064805422383 
-1.2230103647723976 0.3391982368465104 -19.540740267380727 
10.433205087264614 -0.07600212757365254 17.46676458204331 
-5.237815279864368 -0.4245186050863754 -16.830508212281472 
16.097486870382266 0.32007976448749187 -7.119074893450664 
16.71547560449961 0.23379804052440156 -6.206506042259741 
1.694285244717391 0.38770803829469147 -21.13339765130676 
7.415207725428823 -0.21866807220667717 20.17532252848581 
22.53910850431575 -0.3831556956478255 -1.9559681663203898 
-16.44505830497506 0.4991928191931021 11.624233560942365 
9.913344521975294 -0.19909176823895103 19.467552608006432 
-12.049747473568637 0.4953208269574063 16.976423679602323 
-17.757009829105588 -0.10502226425789629 -6.67463838328634 
3.283862493098169 0.1715238921154394 22.678784732374467 
-16.726612035368905 0.20464493876418488 7.540281411949828 
18.192407854826094 -0.4255318377480355 -7.4225351441988305 
-13.107953822650826 -0.34834253181480246 17.659607638408378 
-3.224785148343033 0.17063023350564888 20.968231104668806 
-0.9656883279801245 0.001567405040365899 -21.64390075390846 
8.091606205732104 0.16359317232651638 16.57575824418941 
-5.8124538552891085 -0.38333919215350176 16.62949013817291 
14.759623704060745 -0.49107749036798276 14.612032028632823 
21.500646556536967 0.066874735889353 -8.06839568752147 
-17.91067347649731 0.45003837632143906 1.3269110438097633 
17.45649024194048 0.23341210507860988 -4.893336877363049 
-1.3982812740774115 0.4334470639068324 20.150309982400326 
19.04801354464697 -0.2856336366815545 5.507148567092546 
20.7539132619081 -0.3945568299038076 -5.101418708991332 
20.48995149414813 0.2946655068947551 -9.398257556414139 
-14.750009675268583 0.38817252005947245 -15.890743344256192 
19.7300572056574 -0.4180242933995346 -1.0931706314067653 
10.035025786301938 -0.0856775533357027 19.394728766561897 
-13.606112339496367 -0.39201898376669586 -13.588163944511233 
-20.144690662338625 -0.4800186886656602 -2.6935011907686532 
8.289309309493088 0.09788025048835247 20.43679276070394 
20.75105750228305 -0.2396098909838721 4.444733550223089 
18.717598753378322 -0.28875655310039516 8.75847644053169 
-6.542585985483868 0.07949448604430354 21.560815346070477 
-20.17646928537766 0.4347811813147866 -6.511652983173409 
6.545379292674139 -0.4406484988107061 -18.472916894726886 
-2.5208699365813394 0.23426440962032002 18.746128709899033 
19.666313482681524 0.10049419859593578 8.651971056669817 
16.34532023770153 -0.33260330259634263 11.349848550032346 
14.888805978504262 -0.31399549570702956 15.269189177152828 
-4.163392745313793 0.3449236380630525 18.456835912796272 
-1.002961727735772 -0.18784678452533943 18.20480340259056 
6.097503610018576 0.4683767811030425 -17.412692441271847 
16.559102998796526 0.05868386437153772 11.334022556078189 
-6.619277555939319 0.19640220413695486 -17.72383624738217 
-17.724182424976473 -0.39238401880683127 8.375450104884129 
20.81966253411102 0.3578321127080345 1.7078637853309566 
-21.11263346173156 0.03278465533839914 3.876483398019398 
-20.728353812970397 0.06805030890994068 -0.9925023877191249 
-21.15577063008424 0.20200536656803758 -4.321664309920923 
-11.756553051344586 0.019918791983297823 13.659596661368218 
18.363254045691527 0.061268664240198945 5.649310030558854 
-11.008564405558674 0.3197801481978986 -19.20368325175431 
18.458263726051054 -0.3241469933728105 9.86164059727338 
-17.49684246151447 0.1400170282702331 1.307751559123661 
-18.712474777106483 -0.12901049350839178 -0.2912729094375387 
12.166996683231737 -0.032686592210018905 19.417720862986236 
-17.94993849527244 -0.41915984296766884 -4.0301483834707525 
1.4426075368934403 -0.07608827075997737 19.797871836573538 
3.09634695456227 -0.06176660613079055 20.20050031878679 
8.165997219645785 -0.3447257479190847 -17.39153923882439 
-10.470779035789741 0.47474894451583705 -17.88450297967557 
13.293075299406807 -0.139667872812257 17.461634359821137 
-13.879503237525299 -0.2658144433474857 -14.546822417325224 
14.830744681808744 0.4778301816543208 -11.723426651104154 
-18.553043094990297 0.3073718023997668 0.3017871694043653 
-5.4587893452144804 0.01580730740001901 -19.780264108306994 
10.088858418606687 -0.26351499429569614 17.18075017810665 
3.9988803697794055 -0.004619354555820188 -18.273069341415834 
19.670638624340686 0.038863841889942075 8.478913168971935 
-22.54422537347634 -0.032564524985687515 -3.3612309154451454 
-20.18457858772567 0.47851696858233994 8.830427443143241 
-14.32180028951586 0.2162276619958441 14.07332866852647 
-18.41025810150963 0.48766543311283517 1.341761724656043 
-16.994073369771584 0.1276188896518864 -12.53003203586754 
19.444346701051064 -0.0669197879147353 -7.378707443385684 
13.982314450826683 0.4425970362397095 13.86816914884996 
11.786456775083415 -0.27617479136491097 -16.2298319618664 
-13.471856113103936 -0.08859926699132958 16.42325298690034 
-19.534155270510123 0.42339955297243625 -7.317683869981871 
-0.35432368101839196 -0.4399421524126673 -17.992214664838606 
15.739279669376883 0.4909304310964805 12.221195491368558 
-20.533548279137612 -0.24083026989086542 -6.961566985339335 
11.1493375797612 -0.07258806418337815 -17.394919365020236 
-2.6784693124897054 0.2925617907312241 20.415772844816196 
1.4654628764948232 0.005383855095005385 20.84212012250109 
14.230562181896778 0.41457126043057635 14.162312531394347 
-11.534646409149179 0.35643147464528613 16.87117263211199 
7.82438849393807 0.17217782242670987 -17.72152962703621 
-22.5650978201848 0.4569148205762191 -4.416158789417251 
11.86181978156589 0.0158683752622506 -16.120689541975025 
11.396945345890279 -0.10501527276651379 15.278264462887776 
-22.81855190551656 0.33585837861459056 -1.4474314615125794 
-8.04587141259223 0.07263928575777334 19.290552743038834 
-7.7480592930789225 0.062070717291122346 17.415041277878984 
-6.335077905290321 -0.21476080352487315 -17.789225429872324 
-22.042102735198462 0.4366445689462518 2.396664424729597 
8.340932629046856 0.4202907364548283 -20.647999877327685 
21.17189571379004 -0.2691220477555988 3.7598733899501298 
-13.35156327349834 -0.21954330253284327 -16.950227919030457 
8.462810511433537 0.16282704636763035 19.671399871418085 
18.186494554527115 -0.33958879947836973 -5.24709418691164 
18.059023805283136 0.0030582233603728692 9.175653847301904 
17.532363247171475 0.39839680557373214 -10.139922278659744 
-6.518407693223227 0.253167217052947 -17.39870952516489 
-18.87515214851304 0.3843051415190998 -9.132468384013128 
-20.844101716556608 0.43538898629662603 0.6283698879804859 
-18.466346313572984 -0.37264982635718946 3.261407334730501 
14.433483692975235 0.11748207457103022 -16.77175133018924 
-8.18434332898372 -0.41332340607420714 -18.48881017092427 
12.708290951107928 0.12666580497216917 15.04731813456939 
-22.00923666144342 -0.321754568904405 -1.173149159079001 
5.590462844082464 -0.05150040746401463 21.972393568143076 
22.50432195743017 -0.10023883892315355 -1.0312332885633475 
15.377057282203706 0.4472209812357817 -12.840564585018658 
-9.499315468203003 0.2951671972346057 -15.633404230285455 
-15.487704999181158 0.41813634607226935 -15.64986368796608 
-10.233993257462958 0.1287698380962622 19.646951869419176 
7.249685878068877 -0.12666097630016848 -18.758032379268354 
-18.688105136916906 0.24424411045844108 -9.623004358916223 
-13.677500556003094 -0.2244565992820059 15.446356597916138 
21.42702326621317 -0.02096276776733097 4.653712229414015 
5.1723536936193675 -0.05599264881240773 17.618229921354043 
-20.474008658576235 0.2918435392444889 -5.275693537405446 
14.353461036900294 -0.2513582177042111 -12.710666000985192 
-10.078072451183909 -0.12822735856883583 17.930529367391774 
18.823923034741426 0.0929562782492479 -3.1414200089039555 
-19.83711441126654 -0.4724482646379149 6.641374385359882 
2.870288468057229 0.06794403380949632 -17.708461489635557 
-6.022735802808184 -0.43921027464230367 -20.48553223909805 
-14.32487804310966 -0.1632535175346167 16.389338713672604 
-18.62731996029476 0.07768042729412639 -13.176969488218996 
0.2797414629184632 0.20438590813371071 -18.818351590901962 
-7.589782678253243 -0.28084665840548495 -21.02886274577242 
-15.308151697513077 0.39540872697134466 14.171458838994672 
-21.213383825864565 0.41957590428028446 0.039804145628502034 
-13.063606043685432 -0.2956968384778408 16.31709892804848 
6.275354191038359 0.1746323679499836 18.313090181270717 
-21.48734060193378 0.1853844597212586 4.217803663456114 
-22.200954064894326 -0.16450569606234433 4.979130182465057 
19.440649065064196 0.0231173564850935 -5.601241914940661 
4.716048103866121 0.4601713031339997 18.760211161034984 
-15.517325897290657 0.0715389446832958 -13.898248082129339 
3.6387028924837264 -0.1696360527902938 20.967331540353225 
7.627837246125517 0.3200069651075863 -19.640727612202806 
3.2110514720847982 -0.3601179923441368 -21.936867045710187 
0.703288222504465 0.3739630833088392 -17.52018930818166 
-8.878222635316437 -0.03915942345432988 -15.70227473579177 
-16.633932234365798 -0.4371711315653771 -11.04899659070483 
2.551878561664086 0.49089735989050665 17.641235038009842 
18.703258839708404 0.3368062309620994 -2.8966633613905737 
-12.149824298084585 -0.24423488027328888 12.934446113377172 
-14.897479309469198 0.09447004193846009 13.374358174909224 
-20.396562917186905 -0.09699396386375181 9.02349686418506 
-15.750408571576115 0.22839374815093105 -14.816803068862281 
14.519179936142182 0.1944113860710669 12.956122436196633 
-18.769616889132145 -0.13497516104999674 -6.10897582842342 
-20.438994147841832 0.4032266375489487 2.445677868764746 
-19.66085232492721 0.3738961555372552 4.411115239961494 
-1.9547648500157861 -0.3482967936930189 -20.619298303102372 
-9.041043619793173 -0.09024632488726392 20.29458981560335 
-5.462005360049912 0.23869461741388764 21.91761074103987 
-3.1478138539323512 -0.09749273935485658 -17.478352630190695 
-22.4404144072958 0.14328259561424772 3.703199078964109 
-5.291945757348523 0.29337239610467647 20.470588557300673 
19.181701139907346 -0.03615855810435642 8.420363584260171 
-18.50595928617462 -0.4688637882911092 4.156249033066583 
-9.651870835463026 -0.4697543755257457 16.79986114057846 
4.622297702324746 -0.15572486129050755 20.755854183936933 
10.13924327465872 -0.01442839754961367 16.253817122193077 
-9.887991991587981 -0.3354366952707153 20.490068949870576 
-17.999353634657876 0.4018982514986166 -6.629244059584884 
6.276217509934125 0.41801157363709274 -20.488019921873 
14.553875659765671 -0.24723983940240257 -13.855124661545354 
-14.016875191920379 0.1100889457979971 16.62471966367922 
4.295615292790995 -0.4697628009430521 21.93746868092321 
-14.968092887576825 0.0464690004109114 -13.840065349081284 
-6.979122303511023 -0.11128122213466862 -17.11905221738771 
16.94081619724566 0.43916628024517923 -11.460394890799712 
9.02124874487743 -0.2583391964511419 20.22576716841823 
-12.30368792138509 -0.26097864312712715 12.978589998860672 
2.4899231347018427 -0.03418495327811477 21.31468607914402 
2.6035581104649936 0.35130550332635013 19.528387630818155 
-3.1827940972604916 -0.1338220142751647 -17.880223227517657 
22.23356184003334 0.3523029284484468 2.5476249163535645 
11.538589416842177 0.44573409934878594 16.925532377734985 
-9.315210562857228 -0.28372256402731366 -18.952045190120778 
3.446064654393118 -0.26908065358165234 17.40926328033821 
6.294994740839499 0.22771765130707322 19.319578914466447 
9.910797120217776 -0.026237298198960035 18.338528125557183 
8.958352239012397 -0.4078230549457379 -20.172307107398346 
-19.759668648132212 -0.25678476595299793 -1.4032515157283243 
-18.004744940579446 -0.28647422339926165 4.239345294955973 
-17.262721888363142 -0.2951440326709467 -5.791380580013472 
15.164596736632744 0.22468151963694982 -12.253592608353346 
8.763554655009099 0.12473213759080137 -20.43071054712695 
9.077558484039695 -0.13785932622602037 18.975434783994253 
-20.84819932615803 0.14942467662100267 -8.881163858448147 
-12.272284235298928 -0.3268402654816135 15.932860500023255 
-1.2820151890327207 -0.4639240584434843 -22.93406121178275 
9.692948082203811 0.09893077010228424 17.496582342512013 
12.001850460089068 -0.2629615931772843 -14.807153169060628 
16.308759471891154 0.27585536750931683 10.367017601138574 
-11.510860565388137 -0.31466623617408085 16.140804086486654 
4.644274402521616 -0.01377382099128499 19.160924428555422 
-18.28786035962981 0.143167517630158 1.9629882036008603 
-4.7914806817984275 0.12704915404851413 -18.621046137519542 
12.059310822791522 0.2573113927088996 16.07838436040067 
-0.3419943722009404 0.31994399140105545 18.20721626046527 
-20.276422143351994 0.4389531253649769 5.157036539617334 
-20.21554119467797 -0.043896362556759216 6.276625897361517 
8.664420941224101 0.24672826833938089 17.01986289827304 
21.11235189805222 0.40784470177832055 2.7874527779274585 
19.742282468392183 -0.16719609723278872 2.214903159891024 
20.673492964075717 0.4610276176602993 0.381113032819678 
-14.34547040818354 -0.2417481570167479 14.413393885137939 
19.43260988958574 0.06865804891619531 11.309837581810168 
19.115728960427028 -0.02061631618873394 -9.108703585171787 
-3.9184510069901037 -0.09467870177454629 -20.074299249426296 
-8.46928522540075 -0.4104652851603884 -20.027954402389188 
-13.557276042183988 -0.2646404564957129 13.129232180216443 
-0.8524298281191779 -0.16438635747291597 21.959006109067047 
-21.11682993414031 0.3689333588723537 -1.3139393263259853 
-9.944061561918513 0.1336841700456668 19.967299107685626 
-7.133835561482033 0.26575167013950274 -16.114974009330204 
2.786647153480938 0.16455157667337006 -22.81805270854011 
18.331677431424204 0.3133667184460831 -6.437979058076048 
-18.56388160723589 0.2248554470788161 1.9726399367418992 
22.73083842251116 -0.4134685749828415 2.907241783700849 
-16.671733341546208 0.4515870671739831 6.463033807778153 
-1.586307690305174 -0.18081891626986502 17.791785641786774 
11.405125984200893 -0.3904246477663875 -18.678532301802793 
-16.119281226960975 0.30843301505316467 9.688033244793024 
4.0618290910231325 0.17529251130515833 21.325291789806414 
-14.20946306882731 0.20685898052099805 13.07578170845544 
17.91600831479839 -0.152115118723661 9.263387820799705 
16.522302200019386 0.4612096163233954 12.458272422933856 
16.774789486748197 0.25328166930092033 -11.614537750663509 
-4.751335440723579 -0.05455240154951946 -20.14609153935549 
11.888455363494248 0.04234879870801844 18.668649140267547 
-17.687140026854593 0.14871073163934623 -9.064654215112457 
-17.67355237888556 0.08471821229546361 -11.541614823914713 
-2.6619168299615485 -0.3850711542860069 -18.68600985611325 
-2.703900848778789 0.01613369978260959 -20.2338474742644 
12.056573308507096 -0.006059630838795793 -17.885839094669155 
16.826519697097453 -0.18024369863208933 -13.224631793385438 
-1.531913807901755 -0.054776573097789494 19.817388617667547 
-21.979238832009315 0.1445331558457399 0.7598455048458221 
-2.220283948205377 -0.20906135078881505 19.53507583177879 
11.939499987820678 -0.47236599794243517 14.05067709545246 
-17.31817454774634 -0.4869393421707451 -6.524739733883995 
-8.021989001695054 0.3105607484908445 -21.094574162907474 
20.695837751618953 -0.3291385321854815 8.469661581394199 
18.407970161594587 -0.16226886655971362 -12.819102484973358 
11.000077462173904 0.470291320165553 15.208895374123712 
-15.402962741955507 -0.49478810246244254 12.518978219096418 
16.972175902596117 -0.3378930312722891 -5.065823634806896 
19.80863131813694 -0.15298720934250942 6.16386292500306 
-17.336054228905308 -0.23483923378086136 8.186271870991575 
17.55201046014781 -0.3696188550048076 6.0226744063750015 
-6.798487457517354 -0.0460105514024558 -20.698703957145334 
-17.577808208404484 -0.27164811492492325 10.06509089193857 
13.351410488112746 -0.32770783022223926 15.67099242237401 
-9.331102210029592 -0.27567940514608225 -17.846534841461526 
20.889410174763604 0.4770904599735577 2.0199726956615427 
12.981755640896386 -0.3460520932488026 -11.821656477660795 
19.99521455118265 0.2265098638666423 -3.3428836634793377 
9.248761649557204 -0.33892699111382174 -16.58305022731096 
-16.681893702406168 0.0933386534944638 -13.970054035150229 
15.902705003733272 -0.46667782699795246 13.534689462783394 
3.0904085281349896 -0.39938554029817097 21.160526226675103 
1.0667544981402237 0.2308911503094433 -21.83148450653784 
5.542434268034719 0.1800335029813508 -20.07943754976224 
1.699986628485927 -0.020968207844484166 18.03982294834023 
-18.180046926861685 0.209466294958901 -5.225176674573981 
22.14612023048551 0.43950337033829345 5.629223719689402 
-15.346313916412486 0.36306949125190413 12.200577994833342 
-12.05618673465598 0.35733723664277717 -19.537310548498926 
-6.8033427105551985 -0.02820960726414734 -19.064200193437156 
-13.801515107675916 0.0656693042898423 13.834826546267458 
19.35232693197169 -0.38531840467897416 -4.995412210742957 
19.903422816706435 0.22430139162356066 3.1369725940509183 
18.917655909222244 0.34984885699481993 -8.14301092220721 
-16.243578059524935 -0.1712689108791665 -15.521048072778264 
-20.063545824170717 0.2755787393086627 2.7223137638934856 
-10.197734007047524 0.3984191920687894 -15.890696694256937 
-20.410773984498892 -0.06579795883556516 -5.256797048953206 
17.189432573952196 0.22325549619218743 7.233699358558804 
-13.6114341083365 -0.3168216206350455 13.008471571646853 
20.68788419979414 -0.08069105876698324 6.453563273021516 
4.354511931508172 -0.3971931151977638 -22.042815279936125 
-8.741810968310318 -0.3626165385701182 -17.748906707459113 
13.509155318903616 -0.35008856371768815 12.45757597894293 
17.540750160147343 -0.49101644722934046 8.48852672672863 
9.412997267682629 0.16917188685507945 -16.593688798254416 
-13.768788894416753 -0.29866317759138905 17.30486274508968 
18.37638053115266 0.3595711337385219 6.4848275378038505 
14.402116833366128 -0.14551719794516282 10.348837111585647 
-6.893647873346229 0.29793834638828387 17.317988240295744 
-3.3371821579046768 0.49667649435211436 -17.337585682601862 
20.30770199335322 -0.42753919964400755 9.43279814022678 
5.43918615112018 0.08631769568973024 -19.425036779556592 
-16.81945319080124 -0.4980765553653904 8.646698514215752 
16.06311337340097 -0.062348125922773834 -16.06598959969787 
-17.376615175855182 0.15026609751117448 -2.6617322140955175 
-19.527791139960744 0.3469200255157371 -9.69929317940844 
-20.78878947410254 0.39975939052970877 4.4106044772910575 
-3.6395902459337224 -0.375193174286902 -22.05601686315609 
-15.018560231268866 -0.3837093693480499 -17.34237803206769 
-14.890632448602599 0.1543806122750756 -10.507477394083605 
16.731664816880794 0.4492997338838579 -14.1415159770548 
2.3947225343960343 0.21700337919260893 -21.502938736436455 
-17.44303218773547 -0.40090910051116535 12.993028868014955 
-5.853532995583461 0.3054441705312444 -19.10860404440972 
13.05547141443282 0.07540802870380137 -15.524426319885807 
-5.438699425327812 0.4404572223101826 17.31034821612719 
17.06674846412854 -0.2541653563979761 8.327355311046201 
14.568866409976208 -0.3288506120748319 13.811140208123987 
-3.7142416176302637 -0.110552704296215 -22.607229141315372 
12.843486316189487 -0.39471439217126014 17.095693276175783 
-22.025473339825137 -0.36148871616629397 -0.4652369213799747 
-10.56044624015774 0.009275888859882064 15.496884283886807 
20.16201446719928 -0.02381938483190338 2.0323412343436678 
-10.097932475433822 0.43300436410355114 20.265498992585524 
15.562103957218643 0.2546566291678791 -15.504080917062373 
15.263611217963275 0.46499163733561155 12.297885370344925 
-10.49488329200322 0.0061695504724413874 14.585819982727358 
-7.187910276250302 0.10132236953353801 -18.115119042601545 
-19.53656574884928 0.06624871207160277 9.094075047919508 
17.832140079814987 0.4879756729836865 3.1080767144262076 
11.235092467855209 0.32303551531616714 -14.310344696132015 
-19.66067018094985 0.48666047729154005 2.5415522888628153 
0.1821879705824366 -0.08220508326295839 17.88761548087532 
-17.41427097229248 -0.18210812698837142 -6.047098528286692 
14.941885964013686 -0.1184870391078714 -13.194355070763013 
-13.812867111196722 0.17120753079308138 -11.92335662298364 
-21.703466125061887 0.12126516534245424 6.619580337268781 
-14.997495933601778 -0.2628514030478696 -12.72405366231492 
-18.521481040285085 0.26177304638806986 -2.710652432938523 
17.472868293599372 -0.21559376586344314 14.197933494995183 
17.247454534099926 -0.40425199333829875 6.787863243144047 
-9.506404892304925 0.3456136028081619 17.178855585706778 
2.3118973893392387 -0.42972128551158384 19.309915419188023 
-19.711881608640734 -0.012622828238794015 -2.638404781243254 
-9.367697599042305 0.3647014865430235 -18.64796422108979 
-22.813970424839905 0.038009973847599854 -1.2193347050698842 
-8.626690657615567 -0.010393927660549251 -17.312815119241932 
-14.0828550946419 -0.3199386227630435 -12.961430068896549 
-5.874699591637338 0.2991353867123353 -19.056837331066788 
-13.496896779748262 -0.10988498850396544 -15.689842436662754 
12.992957140306821 0.10617295289967832 -13.452111197959905 
21.365655815037194 0.11351920920177849 -6.9289046920049655 
-4.485330531602462 0.4045383654908854 18.41223422334863 
6.062944214327117 -0.29337573765591207 17.38474780038868 
19.49097386066279 -0.09521679508754644 3.4957920116664973 
-10.875620459721892 -0.09641121457995172 16.567462100224084 
8.501335803998527 0.14305303207343878 19.853745038332058 
-6.647019755306826 0.43950980771524906 -19.414659079765435 
14.860114612639448 -0.4700952346553846 9.669447203314917 
-11.921775131615494 -0.10035125211830609 -14.109110251416109 
13.697388021971742 0.250639991991502 -16.707881394971515 
6.087966721100766 0.226165886029974 20.276281531120524 
17.171451127375835 0.20116020912590227 -8.94541819047417 
1.6652190081473746 -0.07394568382431477 19.602299933222437 
19.692857315040047 0.21438035512091547 -2.6975753964557354 
-14.375238992659142 0.2213666478457692 -16.091570459221437 
-10.975445118950372 0.015250014441413495 -19.42726301321054 
-3.14099123408413 -0.20247650389009753 21.94759267608806 
-20.59386803313553 -0.1832266062787582 -4.649224325696517 
15.650180061191177 -0.4310125760135335 -14.247076095105937 
5.702672991062039 0.45000747634012317 -18.474484189819126 
-17.853606975407057 0.3853320453505713 -0.4501962679718423 
5.566968566452121 0.3098140509643501 18.76929860538537 
17.92154144604249 0.48656114303260956 -4.101207839680979 
-21.78614014996384 0.19978406427130635 1.1579591526035726 
-12.516307350132168 -0.4897494439988632 -14.905748774819854 
14.646371015479959 0.4719104604299229 -13.927339458792202 
15.05445722033178 -0.4153586101912512 10.666382784101785 
-22.301843100868943 -0.3268936261169251 -2.959934956221924 
10.888916844097881 -0.0736322479361946 -18.800685387284958 
-18.654071231516365 -0.2192294095134304 -8.141475488568505 
10.619801698692033 0.44497623616919846 -16.75543079555187 
20.166841906567274 0.20991547010224398 -5.70390532482925 
-20.338342212816798 0.46802618575532073 0.8240768160933706 
18.376944927681365 -0.1902358190648722 9.493139072053564 
-18.339436308295472 0.4173655950772215 -1.9077017159714975 
-2.054883119731109 -0.1713567635404254 -18.069601794953172 
9.12317254372259 -0.30449362219290743 -19.453010461245945 
18.670358472489813 -0.3856581798165907 -6.067278242851107 
18.336858959378603 0.04828010443264452 -8.608760324121372 
-9.022730526449669 -0.2972249439232547 -16.428266852785878 
20.956824106895994 -0.4669701241715941 -1.991652559982468 
-1.7195273149146884 0.39487354339788183 18.292346794235346 
22.77751985753685 0.4618871576673247 1.7603894036163528 
19.417865290057115 0.165759287838402 5.217902539685164 
6.645951837903659 -0.19036012878112873 16.383584913102528 
-8.766731148462071 -0.43728288159223083 -18.419044898288185 
15.228506204655222 -0.1308150927607461 -16.61810272385432 
-12.089586668120093 0.20539527411081504 -13.085122780200939 
-19.983341083497127 -0.09523062742918875 2.1432711766256363 
-17.690882958736147 -0.38021862660522754 1.2141629890002439 
-12.489421289543737 -0.19357370355250025 18.96252816535607 
-19.050519211455807 -0.3149130394443299 5.704777457562485 
17.9080070168306 0.16853241464119573 -2.5377982190772457 
-4.034256632561763 -0.17907538637709897 21.96549302280768 
-16.07041887528531 -0.32115205090955257 9.166405945678262 
-1.054627763849035 0.2708752773014519 20.381344826137973 
15.469412781353407 -0.44096994216954344 -12.010275040520996 
14.438771408035382 0.3365854365870673 -10.86204447407921 
-6.712024217134157 0.3021808771749487 -20.617849959291885 
-11.417401521183145 -0.07970005788841805 -17.85654968347596 
-16.864423291782533 0.3913231745494121 -5.097111339925324 
-21.95994978444955 -0.37067756351102765 -3.12032306086271 
-1.257719177478778 -0.17957705005348001 -20.919974031963918 
19.94804421585845 -0.20749291558608662 1.5137779078701077 
-22.072474156558258 0.2196381916564496 0.7838115842778205 
-0.9967250052677162 0.3783642730243679 -21.922618741048748 
-20.488340838976505 -0.43576974396148094 6.628928239135137 
-4.968814005255348 -0.21053575876086672 22.138594803384205 
-6.668533843468781 -0.19125658276898494 21.539150652070543 
-17.907788282245257 0.42587702242079717 -12.49366664173295 
10.652089495195403 -0.1721487352824912 19.371344218193073 
14.656304635743513 0.37774610930902575 12.415669675424812 
-17.05115755676217 0.3966652921912843 12.598063297032356 
8.516731856444503 0.14740350015193326 17.45774065876011 
18.84824108888221 0.2529483464977862 9.650727274947108 
-18.021278181005254 -0.4471673492009718 -9.768886200692211 
17.829993246855807 -0.3353432356062792 2.7845262406395928 
-9.843414636023475 0.38110304924171834 -15.191795174987071 
17.692088875407265 0.47633257609638546 -2.298915599859471 
-19.60380178787019 0.2918394305057158 3.547201726670416 
8.22021327889403 0.3376629841172104 -19.377213408870567 
-9.199501673078318 0.20778417347921319 -16.733588357713863 
-10.406166795973459 0.12917117117855936 -18.076039243507594 
-7.502702066973947 -0.07536947436064623 -16.937582179837918 
6.252561330713898 -0.16858667944053451 17.086146691345693 
-1.4679717550268536 -0.28231343082268434 -22.078849478983617 
-15.609268260323837 -0.4269875479609716 10.747368294844875 
-9.128968942715867 0.14928642897112632 20.521119207548498 
-9.745420799552425 0.3869699098016234 19.04993217736319 
19.946596384346435 -0.003918935198535811 0.5782430703641961 
6.382858676143739 -0.16357825090262512 19.648095589715908 
-2.9476150516004362 -0.48417181850445523 18.23923553659253 
1.7691020306531464 0.23224834460161314 22.45048008408438 
-22.02450850525698 -0.4161892068798665 2.2179980371835706 
-1.367318203009133 -0.3414679631012043 -21.117656839770255 
5.824504240548406 0.15894956951418937 -20.004501665259454 
-18.670128584817245 -0.00870949166972701 -7.76971429671984 
-9.734494857616921 0.12591284663655344 -20.50675038404704 
-16.848131448224176 0.37627664445663056 7.190329079146955 
10.463064533560626 -0.40992104509131855 -18.990353714051636 
-16.71097959517061 -0.21790073133573706 -8.998152872378517 
7.820731472053023 0.018588281729601253 19.524239831394947 
-3.603614060573202 0.27296953772478405 17.87756312049843 
11.397392406863979 -0.0989587139240733 17.335087270996464 
-20.27602035199121 0.07888456936644606 -3.9736828319454656 
-21.091590639061838 0.10545137772199298 -8.572318147559507 
5.416066854785052 0.4948427700222988 19.795919657883918 
-6.196038772549328 0.3934486396386001 -16.895567898351562 
4.658380590843274 0.20495289313439247 -17.187024716647816 
9.970789452320789 0.014745082266069187 16.50296649677618 
-5.122308035597462 -0.2390639174847422 20.353917713791805 
20.029235114811286 -0.043852237880463996 -4.151427034618683 
-21.5197764644018 -0.2023581161705702 1.3512428788297908 
-20.827626098215895 0.2272308492071804 4.461185498014327 
-7.025525857027585 0.05690638459344832 -19.8870476060377 
4.741472263642779 -0.2476240198392231 -20.823803076610222 
-3.243671720114345 0.31082340359732596 -20.992215092627326 
13.97287205852052 -0.49821990163882457 14.155138688639308 
21.19791025867609 0.4878450025784008 2.6459145966495217 
14.487389267797942 -0.4619517680460212 -14.15667152193597 
9.803524545955712 0.174786470291722 16.195453742734028 
-13.033767991094718 -0.32408702790879784 15.059586606400162 
-12.115933406312218 0.3904910256319004 16.831825489518774 
-1.7826735631594333 -0.3674288839129527 -19.53066671089466 
-8.844201150284189 -0.34920029779578543 -20.55875190683617 
10.449825190504622 -0.1536604487797294 -14.291222616038818 
17.27252055224037 0.28082086966748054 5.50036691252588 
-6.619415189247992 0.32019434854772355 -16.388812015091464 
-14.192154341026264 0.4545055469373416 -11.7978207405379 
-6.992957780156253 -0.4663592596650352 -21.067530698471504 
6.920806281781382 -0.3935928006113929 -16.97418750187923 
1.3268777658108788 0.014072382837129638 18.48743341711312 
-18.02071033021404 0.39078043129064466 -12.76828954565384 
10.619133920036884 0.32289292615234777 15.602912837140861 
-12.001055572405457 -0.3390310117535682 17.917934155294745 
-22.939740497473238 -0.09026788850790657 0.6762212040903475 
18.987097509998147 -0.07740088417702917 7.754899904098391 
-16.52537328017 0.13140894816216087 -8.38025692161733 
20.969480661970646 -0.09504042109603661 6.058994695150372 
9.814100465526984 -0.07709632560200219 15.184730132991163 
21.854035904960558 0.18538110866016255 -3.4851061268784527 
20.733834001183293 0.22586998973214634 3.751761088636501 
-6.606144481477837 0.24578092437703603 -19.900209978693912 
9.910143396172495 0.027866848559252477 15.844625550930337 
18.599205320912233 0.15582195587198078 -9.27631936221716 
11.669740281662307 -0.1624966413346416 16.378063677724555 
-5.687738577875248 0.46707415317286927 20.59573526993809 
12.91250470309025 0.24756022096801455 -11.996162059228563 
-2.1570311056889846 0.45504886719870075 18.291988016761024 
-18.182712641468285 -0.48110159317811574 4.721127610466607 
-3.0082701862083243 -0.07959108996595765 17.94595782172966 
-17.744622722379617 -0.0712045506040585 6.857926827827772 
18.089596417356585 -0.42710092264560495 2.7197845253842843 
17.36154911253533 0.32305319062802296 5.32380581191068 
-11.451262794441915 -0.38578351965542745 18.426985315995122 
11.342745731613576 -0.212624242184266 18.10597518586998 
-21.758115673746822 -0.3903032413781291 -0.7521514056831636 
-9.778311187371747 -0.014870529364225504 16.232155415892453 
-9.376870896808706 -0.3465586057961245 19.63983073721014 
16.928593498059143 0.14900118730531364 13.663770825764379 
3.249976287023795 -0.040192825524062115 22.243872633709785 
-8.56627975374712 0.4621687178895826 -15.773683892518296 
16.81679477531644 -0.36126048606804095 10.750676546010844 
12.924769209091732 -0.4103555606599799 15.454776928300616 
4.657979754437893 0.3829812694219251 17.372167736239376 
16.40007131446687 0.44416732729132513 10.647999040055169 
17.528926105403603 -0.06360465946484217 -11.631386434400559 
17.594310190190598 0.37492745823180507 -9.852045690622205 
9.984033229239433 0.3912495033240889 15.368557824268429 
17.409501716156807 0.1544176986924357 -6.831901149763498 
9.498729443951746 0.3264282525865645 -18.827748699716327 
8.774981774035963 -0.37211246476004534 -16.306102053282043 
-2.2036908094297 -0.25324990381090795 -17.668775747985023 
1.8673260071033824 0.4580620149650012 22.17717513775258 
-21.49992694496313 -0.024923462903143956 -6.510337371216177 
6.8168651239575535 0.39563414286907617 -16.52759681619371 
-7.316655422928425 -0.19486615203284274 17.548763353284443 
6.729144059247472 0.3045813185839452 -16.67294411715646 
16.27323637957503 -0.4062126228256975 -15.895718631578957 
-1.928404645711318 0.17652183329758941 -18.811248016197293 
-7.286703709348383 -0.47747600425561776 18.53044541219113 
10.4752430464746 -0.17244603408549808 -15.620371295192305 
-11.09747032848447 0.024397284724044788 -14.367555258056052 
-1.3001438400454448 -0.4145326599374961 20.52626976726986 
10.256759227590475 0.03611620387090364 19.63717767323903 
-19.144751180744414 -0.15251056994719803 6.327922372950852 
15.860610061492448 0.3517626209569251 -12.217869067672508 
-18.01289579007721 -0.23053604204630906 0.10777784127104652 
-5.039439421636041 0.3056485791223229 21.18964871605407 
20.806164965132385 0.37362283764465287 2.4431368966904943 
-3.9344539947522663 -0.07703804434329264 -19.756946001622158 
-0.2476168825164517 0.08594407466207066 -22.04116425444499 
21.664522405339024 -0.3478946872065275 -6.312900389382912 
-17.12000741536617 0.09307211881144273 3.9593105119328933 
-18.619319575998976 0.14990951107581818 9.035538511043772 
-14.723631616836645 -0.3261715773262307 16.128865289568346 
-12.335520787359059 -0.1815425167086624 -16.16753446472799 
2.832681879947784 0.4320350959399456 18.741997032352003 
-14.308909911517407 -0.2938379767175163 16.096055156884997 
5.726929545033323 -0.43826743210718977 19.431650526737112 
13.491516716645117 0.49579729454145804 -17.77965501381666 
20.90877681298077 -0.49933536217998453 -3.7144434397019555 
15.639264534073623 0.45813632454760855 8.336177146089128 
22.558004661400926 0.345718769102353 -1.0641138558038636 
12.488514432118413 -0.13878644242458604 -12.446308590736184 
-6.0244778418676646 0.3701934242903039 -16.686469498151315 
10.780233568463212 -0.3459633371204669 16.40323909221661 
14.94225867988076 0.20184209509594508 10.433651990648478 
-10.685647092961783 -0.3474772837607507 19.636340343067317 
-7.783179202052373 -0.04560077394851392 18.436849900054764 
13.759053168559847 0.13949588191468965 13.379734365637278 
-17.365331759424684 -0.49045263033162234 -13.09847014489868 
-18.670367830403283 -0.04645221368249297 -7.373203976363471 
13.821112909019147 -0.2537999297301097 -16.38138987948949 
12.352989946556924 0.3080086041127881 -19.04613192159939 
20.148566190191005 -0.3079884135164107 8.234739297039887 
21.959915214343077 -0.03333715667677195 -4.883636400928957 
17.87217935764821 0.11623726089801434 1.0472833604221188 
8.800709070161739 -0.3454444481158878 16.97873401169021 
15.565972981905958 -0.07261961830753172 -8.890161794426398 
19.946580927478028 -0.4363366124746286 11.000360321366252 
-17.96408245834023 0.18967164238191192 12.871705041104684 
-14.9637790700149 -0.4750470361222411 -11.168135462363788 
18.23817658544914 0.13998068868082902 -4.2791042178295475 
3.143982795963135 -0.35355600054718317 22.40794025637951 
1.3899696111144781 -0.21508632129870664 -17.791743569003028 
-16.88197701356161 0.180518347449662 12.849475184741992 
17.28149707655496 0.1662024304975166 -11.94540907368795 
-20.548422442497554 -0.15029675427867395 -6.333991689868127 
-18.609876896397008 -0.015540892032911091 6.944678168135718 
11.908369606422772 0.3827517907807554 -13.094412129895893 
9.609437573402216 -0.3269136152482839 18.4078391661848 
-14.771455170711508 -0.20242995804736053 10.020214422597315 
18.489137381820377 0.28768552218065335 -8.055642343673789 
16.60260742068323 0.34533108185428807 -6.2458878274514245 
16.63525725501525 0.30776569651923624 15.140592932897851 
20.14462434066141 0.08151179300804867 -10.827202679576477 
16.647045421808304 -0.09697431635317866 10.289229506713706 
-15.033852297595205 0.05088095390578229 -9.901778187270718 
-12.70567580713887 0.41602981837814024 18.125826861223302 
-20.38137906399337 -0.2575267153842017 1.3039647531846752 
-16.124493958912048 0.17971061292326773 -15.07351583735614 
19.658888515438363 0.48404446900115927 2.938293404952325 
-11.39212052558864 0.10593070737907895 13.97959014763332 
-10.756803043099637 -0.06988290680744491 14.751481490722893 
-9.174366827454046 -0.1717395299426343 -17.445447285474778 
-19.14652430749967 -0.2290399322473563 11.993927057272987 
-0.8688857449031145 0.09967070408765433 21.94325049261476 
-14.7011624157374 -0.11584436628868455 -13.666559810829025 
4.688331929304712 0.05924502579198376 18.01143964555277 
19.43065516785125 0.28362875270581067 8.842395007376242 
6.700628034846958 0.21943701175251684 -17.771393038446202 
4.131689280748217 -0.42479659374206225 21.51050982317882 
13.631626108002234 -0.41117285780535096 11.856593749455484 
-1.066205399592136 -0.412904367606556 -20.133547753864118 
19.565212560765236 0.30522622043962844 -0.6218765342064951 
9.201173274184239 -0.20500395866670773 16.03018508450965 
-1.969156654579941 -0.40948601463026324 20.483817132454995 
11.540895074689972 -0.32972966358864086 -16.971777729298847 
12.938123157622856 -0.32211376204788666 -14.897648390278464 
-5.2776946297399165 -0.10355358562166495 -16.88316070930391 
-20.17067116088175 0.17116233014882942 -3.0743330550770294 
-15.565623660422924 0.2966681406040307 -14.855679969654878 
-18.115377960235886 -0.1593794218984944 1.2471370666136652 
-1.8810613023450353 0.4303421503250975 -17.925208561260252 
-21.40765893506973 0.2639747671673448 2.903485811970554 
0.301224000698592 -0.4760419119419288 -20.67108983919439 
-4.462895882773067 -0.19932471173578736 20.710499194040157 
6.899725058463812 0.0471230551269789 17.963530159956694 
17.082244054903516 -0.33700972898364223 8.390344150364527 
16.15494587226607 0.008332138798230582 -14.900545759661568 
15.124166793319334 0.1954940556922895 -14.726539804236465 
-21.8367416229529 -0.02601918242486745 -0.19631829433258408 
2.031010375585682 0.3439661889408593 18.92132962633064 
8.119813667938327 -0.43967581382971876 -19.597559923036606 
12.978229866298843 0.37456923581306045 -17.646076569029336 
-9.486189615828627 0.3004159653318471 15.757010451889444 
-18.84277660612353 -0.3929043014267992 2.7393755698996367 
18.765128168909325 0.4663994678234722 -0.8831508422632677 
10.154838131662713 0.06336101294689722 -19.803824483357868 
1.1464071212578955 -0.3018317047453254 17.48392485759923 
16.181321438344046 0.20000232380486538 11.62655232568097 
-4.103672246211407 0.21835398970503073 -17.598773922583355 
-20.096270295155314 0.4740839813370944 -1.9188845681915971 
-17.39350284396758 -0.26946950750005816 -8.09968828030768 
17.30619354531452 0.3941464235677693 -10.866240382783856 
2.421135405638048 0.3314384324953136 19.310862187213893 
-17.979140501945942 0.35802098056362897 -6.426582442323221 
22.10147719341213 0.33207371879797787 2.1226414091642956 
-18.250988242691925 0.41658247869274123 -5.134365216957085 
-17.874784147806256 -0.4968011379923355 -12.871860300810138 
-13.554336421398864 0.08589159048363648 14.001342893780542 
-13.45760982604666 0.4062095527480566 -14.677391228509236 
-19.385965762329235 0.03422376472712607 -4.2526183678892275 
-17.77787790395254 0.4481718777373701 -11.710040077247621 
16.608657692705844 0.037633016048301826 15.013053722478569 
20.242021442647133 -0.477138155536184 -1.1179866501642028 
-16.68738698586541 0.13539414327850996 12.359648448883886 
-17.02160515720927 0.030732789152344564 -8.501508878683923 
10.622129750110378 0.42330809898088373 -18.092450039560394 
-18.387300245564987 0.09512581848539192 -2.276426599562319 
-17.037499485533935 -0.37138012596792114 -15.442476256286524 
12.724263445305775 0.2673442487414849 16.804880025482117 
6.414000426239545 0.07399236720130475 19.734506690294403 
15.857685077241817 0.32173123359554057 -14.77474915156701 
17.339539571568427 0.050834626609114086 6.961712788439262 
20.212734613812223 -0.3412217673758009 -3.8685398266638145 
14.17435885911736 0.38355679820563504 -10.80469054869149 
7.1652050552773385 0.37577336263207806 -17.001085158698803 
-10.778280479136114 -0.2027868442326659 15.434379284216085 
-11.021449639759421 -0.4724822572873608 18.82376455843247 
22.63382440586274 0.19374027740091804 0.5138205736639102 
17.35273603879412 0.14699868177472475 14.12324824394289 
4.433317473221492 -0.15103808349172876 19.317629007383275 
-19.842578822958323 -0.47786168404270857 8.50091865020611 
3.672249055621038 0.0020341329497561844 -19.13249393900764 
2.25308552010227 0.15581279887092292 22.437257774600834 
-1.8673778488082393 -0.2595044041665452 -19.2458136285721 
-10.96472791352254 -0.3754117274863803 -16.15671153868531 
-17.338231212191815 -0.16277484451688762 -13.264299199164554 
-5.64892508773341 -0.1557396589121085 18.27968477626743 
13.079448147211247 -0.4226519464657217 16.613746676885654 
0.5995207024932651 -0.2522137625514508 -18.184475567950162 
-12.714932771208474 0.2176920855310781 16.06117957167505 
-8.501360570560424 0.127597089969386 -21.10702081438453 
11.689732603254736 -0.28256398294379403 13.15182011506153 
-19.22828206962749 0.45600160032411763 5.6448505829882905 
16.86334500582646 0.02292000898080726 5.610689871082095 
14.896378999174916 -0.011665771124632629 16.17596623391792 
9.529152471037353 -0.09242495045275667 -16.27421165109925 
-18.167773882216153 -0.09150082228903589 4.602034648515602 
-18.249052968234725 0.039940119479723535 11.494467326127271 
10.44370681874681 0.34807628469042773 15.933865002847153 
-14.329442051432894 0.322534627163902 -15.597969702455657 
1.6914332784143236 0.2013655582785182 17.641724531258948 
15.647612976608972 0.03883157638250956 10.770056776697693 
-17.907040334666785 -0.2722872921951629 5.670868184931377 
-18.906339461978757 0.20052942562090803 2.534585591632879 
10.81160082975731 0.37851261981241624 20.1626542725276 
18.17445048389471 0.3764336585319532 -2.540333946323974 
15.593994281376235 -0.23169826721948572 -7.973337725222923 
-7.03634967537871 0.3947832986481149 -16.38980173756399 
17.735256863584997 -0.14507910216637498 6.081036440620276 
20.134004748084998 -0.11504268687966002 -3.74190226215605 
-12.896962047796164 0.18177926479310802 -16.797099989889716 
-8.915074197540436 -0.44170242228775425 20.785678551091195 
-20.30771293763146 -0.06411278632677064 -6.55541706228104 
-4.08500500610174 0.29137507649518657 -17.2578189382636 
-1.469465074975676 0.13886518083112087 21.873979821125634 
-18.871431806859338 -0.18690380598027012 -0.142700776598133 
-9.675192513537798 -0.2405934974798687 -17.97779892097523 
-0.39097610569214086 -0.21568215901078303 -21.666841793649226 
0.03617847793047182 0.14433914836160278 -18.0205479242535 
10.168315816858776 0.0018938820426852576 -20.019507206195442 
-3.0306139506275627 -0.4923580625161327 -19.870227303127603 
18.833373519064406 -0.1009233531455197 -9.41517299769989 
20.68575535423988 -0.2568952423742942 2.278294914073075 
-16.228694188821272 0.41408856098609337 13.204387325995762 
16.83313934768191 0.055849546040420917 -9.443323451339877 
-0.8473005497120727 -0.2675653152725951 -18.251031803685983 
